ply
format ascii 1.0
element vertex 1730
property float x
property float y
property float z
property uchar red
property uchar green
property uchar blue
end_header
16721 10404 3237 173 144 109
16721 10312 3403 173 144 109
18182 11229 2779 196 183 177
18097 11229 2693 196 183 177
18011 11229 2779 196 183 177
17638 10805 2779 192 176 153
17638 10771 2501 207 193 168
18097 10771 2496 205 188 165
18097 10312 3013 112 90 82
18097 10597 2779 195 179 158
17638 10643 2779 192 176 153
17180 10807 2779 188 172 153
16832 11229 2779 122 94 78
16721 11229 2668 122 94 78
17180 10771 2498 202 186 164
16721 10771 2490 186 171 153
16721 10637 2779 177 163 140
17180 10643 2779 188 172 153
20389 10164 3696 172 152 134
19472 10108 3696 178 150 127
19930 10157 3696 180 160 135
19472 9854 4050 167 141 109
19014 9854 4042 162 148 129
19014 10058 3696 155 129 103
18555 9794 3696 168 168 168
18697 9854 3696 168 168 168
18555 9854 3515 168 168 168
19014 10211 3237 151 78 87
18097 9803 3696 207 214 219
17537 9854 3696 197 216 225
17638 9806 3696 197 216 225
18097 10038 3237 197 185 187
18097 9854 3465 197 185 187
17638 9854 3539 197 216 225
17180 10174 3696 155 126 92
16791 9854 3696 175 162 140
16643 9854 3696 175 162 140
16721 9827 3696 175 162 140
16721 9854 3642 175 162 140
24973 8020 14467 74 81 93
27724 8020 13548 85 34 31
27949 8020 13323 85 34 31
27724 7795 13323 85 34 31
27265 8020 14007 73 29 28
26807 8020 14001 79 40 43
27492 8020 13781 73 29 28
27265 7794 13781 73 29 28
27265 7797 13323 73 42 38
26807 7800 13781 79 40 43
27031 7562 13323 86 35 32
26807 7562 13547 86 35 32
26807 7338 13323 86 35 32
28405 8020 12864 99 41 39
28182 8020 13087 99 41 39
28182 7797 12864 99 41 39
27724 7810 12864 79 33 30
27724 8020 12654 79 33 30
28182 8020 12641 99 41 39
27265 7850 12406 77 35 28
27436 8020 12406 77 35 28
27488 7562 12864 66 23 20
27265 7562 13087 66 23 20
27265 7562 12641 66 23 20
27265 7330 12406 66 27 22
27019 7562 12406 69 27 23
27265 7103 13090 62 21 23
27492 7103 12864 62 21 23
27265 6877 12864 62 21 23
26807 7103 13089 69 50 51
27492 7103 12406 66 27 22
26807 6645 13090 89 41 38
26807 6419 12864 89 41 38
27033 6645 12864 89 41 38
27265 6645 12626 76 23 23
27485 6645 12406 76 23 23
27265 6186 12631 82 50 47
27491 6186 12406 82 50 47
26807 6186 12629 112 75 67
25890 8020 14002 74 34 36
26348 8020 14000 76 38 44
25890 7562 14006 67 24 26
26348 7562 14005 75 37 42
26572 7562 13781 75 37 42
26348 7338 13781 75 37 42
25890 7337 13781 67 24 26
25200 8020 14239 74 81 93
25432 8020 14002 66 58 58
24746 8020 14239 74 81 93
24973 7793 14239 74 81 93
25432 7562 14005 65 32 37
24973 7562 14004 88 83 89
26348 7103 13550 83 32 30
26576 7103 13323 83 32 30
26348 6876 13323 83 32 30
25890 7103 13548 74 20 20
25656 7103 13781 65 33 36
25890 6878 13323 74 20 20
25659 6186 13323 73 33 35
25653 6645 13323 68 29 34
25432 7103 14006 65 33 36
24973 7103 14006 83 76 85
25432 6879 13781 65 33 36
24748 7103 13781 83 76 85
24973 6878 13781 83 76 85
25432 6186 13550 73 33 35
25432 6645 13544 68 29 34
24973 6186 13548 97 90 94
24973 6645 13543 90 75 80
26348 6645 13089 81 25 23
26348 6186 13090 83 23 23
26575 6186 12864 83 23 23
25890 6645 13081 75 33 31
25890 6186 13089 72 21 21
27265 5961 12406 82 50 47
26807 5963 12406 112 75 67
27265 5482 12406 50 47 53
27478 5270 12406 50 47 53
27265 5270 12619 50 47 53
26807 5480 12406 96 101 109
26807 5270 12617 96 101 109
27493 4811 12406 134 122 104
27265 4811 12633 134 122 104
26807 4811 12632 107 119 128
27265 4584 12406 134 122 104
26807 4585 12406 107 119 128
25432 5959 13323 73 33 35
24973 5961 13323 97 90 94
24743 5270 13323 116 123 126
26348 5960 12864 83 23 23
26119 5728 12864 99 55 52
25890 5728 13093 99 55 52
26348 5728 12627 84 56 43
26570 5728 12406 84 56 43
26118 5270 12864 156 166 177
25890 5270 13092 156 166 177
26348 5270 12632 147 136 124
25432 5728 13081 76 57 52
24973 5728 13082 125 117 120
25432 5270 13088 143 152 165
24973 5270 13091 156 157 153
24747 5270 12864 156 157 153
25661 4811 12864 149 156 166
25890 5042 12864 156 166 177
25890 4811 12624 147 143 150
26348 4811 12627 108 117 123
26576 4353 12406 106 114 120
26348 4353 12633 106 114 120
26348 4125 12406 106 114 120
25890 4353 12631 161 167 173
25432 4811 13093 149 156 166
24973 4811 13092 137 142 148
24746 4811 12864 137 142 148
25432 4582 12864 149 156 166
24973 4584 12864 137 142 148
24973 4353 12627 150 150 159
25432 4353 12629 141 147 155
30933 5398 11030 87 77 68
31061 5270 11030 87 77 68
30933 5270 11159 87 77 68
30804 5270 11030 87 77 68
30933 5141 11030 87 77 68
30933 5270 10902 87 77 68
32308 4353 11712 80 75 72
32532 4353 11489 80 75 72
32308 4576 11489 80 75 72
32308 4353 11265 80 75 72
32308 4129 11489 80 75 72
31850 4353 11687 73 70 61
31850 4353 11290 73 70 61
31850 4551 11489 73 70 61
31850 4154 11489 73 70 61
31651 4353 11489 73 70 61
31391 4979 11030 83 78 75
31391 4811 11199 83 78 75
31559 4811 11030 83 78 75
31391 4811 10862 83 78 75
31223 4811 11030 83 78 75
31542 4353 11030 94 79 74
31240 4353 11030 94 79 74
31391 4353 11181 94 79 74
31391 4353 10880 94 79 74
31391 4202 11030 94 79 74
29325 5270 11947 50 49 57
29099 5270 12173 50 49 57
29099 5495 11947 50 49 57
28862 5270 11489 45 46 51
29099 5270 11721 50 49 57
30016 5270 10580 110 102 81
30016 5278 10572 110 102 81
30016 5270 10564 110 102 81
30024 5270 10572 110 102 81
30016 5261 10572 110 102 81
30008 5270 10572 110 102 81
28863 4811 11489 135 143 142
29099 5044 11947 50 49 57
28868 4353 11489 161 172 177
30474 4875 10572 75 71 62
30474 4811 10636 75 71 62
30474 4811 10508 75 71 62
30539 4811 10572 75 71 62
30474 4747 10572 75 71 62
30410 4811 10572 75 71 62
28869 4353 11030 197 206 202
32308 5827 8280 163 152 146
32308 5728 8379 163 152 146
32408 5728 8280 163 152 146
32209 5728 8280 163 152 146
32308 5628 8280 163 152 146
30474 4404 10114 129 120 105
30474 4353 10165 129 120 105
30526 4353 10114 129 120 105
30474 4353 10062 129 120 105
30058 4353 10114 131 130 102
26957 8020 11947 81 34 32
27265 8020 12235 77 35 28
27030 8020 11489 81 35 33
27029 7562 11947 78 32 29
27029 7562 11489 79 32 29
27029 8020 10572 84 35 36
27029 8020 11030 81 34 33
27029 7562 10572 86 38 31
27029 7562 11030 75 40 38
27265 7103 12179 66 27 22
27029 7103 11947 72 30 25
27028 7103 11489 81 31 26
27265 6186 12180 82 50 47
27265 6645 12186 76 23 23
27009 6186 11947 91 50 41
27024 6645 11947 78 31 28
27033 6186 11489 81 60 48
27031 6645 11489 83 42 36
27028 7103 10572 82 57 44
27028 7103 11030 82 54 44
27030 6186 11030 104 88 81
27031 6645 11030 82 56 42
27030 6645 10572 91 71 56
27030 6186 10572 136 125 115
25890 8020 11617 82 39 36
25930 8020 11489 82 39 36
25890 8059 11489 82 39 36
25890 8020 11444 82 39 36
25890 7975 11489 82 39 36
25608 8020 11489 78 38 44
25432 8020 11305 78 38 44
25318 8020 11489 78 38 44
24973 8119 11489 71 33 32
24973 8020 11701 71 33 32
24973 7769 11489 69 23 25
25474 8020 11030 81 40 44
25432 7964 11030 81 40 44
25432 8020 10974 81 40 44
25152 8020 10572 78 39 42
24973 7727 10572 71 36 40
24973 8020 10276 79 40 43
24973 7648 11030 70 32 34
24846 7562 11030 70 32 34
24770 7562 10572 71 36 40
24834 7103 11030 73 39 44
24812 7103 10572 89 34 37
24815 6645 10572 82 54 50
27029 8020 10114 76 38 37
27026 8020 9655 92 37 35
27029 7562 10114 87 57 44
27028 7562 9655 93 68 54
28182 7328 8280 167 152 120
27724 7324 8280 142 115 86
27029 8020 9197 89 52 43
27028 8020 8738 95 69 54
27265 8020 8509 140 117 85
27494 8020 8280 140 117 85
27265 7791 8280 140 117 85
27030 7562 8738 100 79 64
27029 7562 9197 90 67 51
27265 7332 8280 142 118 94
27028 7562 8280 120 96 76
27724 6186 9872 126 114 78
28182 6186 9872 69 62 49
28182 6404 9655 69 62 49
28182 6645 9423 136 138 118
28182 6186 9438 69 62 49
28400 6186 9655 69 62 49
27724 6404 9655 126 114 78
27724 6645 9421 108 99 85
27030 7103 9655 93 70 56
27027 7103 10114 80 63 49
27265 6186 9875 122 102 70
27032 6645 10114 103 81 67
27031 6186 10114 96 83 72
27265 6406 9655 122 102 70
27031 6645 9655 114 87 66
28182 6869 8738 141 137 118
28182 6872 9197 136 138 118
27724 6869 9197 108 99 85
27724 6854 8738 146 141 116
28182 7103 8505 167 152 120
28407 7103 8280 167 152 120
28182 6878 8280 167 152 120
27724 7103 8501 142 115 86
27724 6882 8280 142 115 86
28409 6645 9197 136 138 118
28182 6418 9197 136 138 118
28406 6645 8738 141 137 118
28182 6421 8738 141 137 118
27724 6436 8738 146 141 116
27927 6186 9197 86 79 71
27724 6186 8993 86 79 71
28182 6645 8514 141 137 118
27724 6645 8529 146 141 116
27265 6828 8738 137 129 105
27030 7103 8738 115 103 80
27030 7103 9197 96 72 64
27265 7103 8508 142 118 94
27500 6645 9197 108 99 85
27265 6462 8738 137 129 105
27265 6645 8921 137 129 105
27265 6186 9027 103 86 66
27265 6356 9197 103 86 66
26807 6478 8738 75 72 70
27030 6645 9197 113 100 74
26807 6186 9044 129 115 80
27441 6645 8280 150 141 108
27265 6469 8280 150 141 108
26807 6504 8280 154 146 117
24873 8020 10114 79 40 43
24973 8154 10114 79 40 43
24727 8020 9655 78 37 41
24719 7562 9655 76 39 40
24737 7562 10114 65 29 32
24708 8020 9197 78 40 43
24685 8020 8738 83 39 43
24657 8020 8280 87 38 44
24702 7562 9197 86 53 52
24680 7562 8738 101 48 37
24654 7562 8280 92 69 55
24739 7103 10114 91 55 52
24720 7103 9655 93 46 37
24745 6645 10114 83 62 51
24729 6645 9655 81 60 52
24789 6186 9655 125 120 115
26348 6458 8738 85 74 60
26348 6186 9035 111 80 53
25890 6186 9048 52 53 68
25890 6484 8738 114 102 78
26348 6645 8193 115 113 95
26348 6558 8280 115 113 95
25890 6624 8280 77 75 62
24688 7103 8738 86 65 54
24702 7103 9197 89 64 53
24730 7103 8280 93 80 68
25432 6530 8738 109 82 59
25432 6186 9110 93 85 76
24764 6645 9197 119 103 86
24973 6574 8738 113 95 84
24756 6645 8738 113 95 84
24794 6186 9197 96 95 96
24973 6186 9140 96 95 96
25432 6567 8280 97 85 60
24753 6645 8280 109 95 78
24973 6594 8280 109 95 78
28182 5488 11947 50 49 51
28641 5496 11947 84 94 104
28641 5270 12174 84 94 104
28182 5270 12166 50 49 51
27724 5493 11947 63 56 55
27724 5270 12171 63 56 55
28182 5482 11489 74 73 72
28641 5491 11489 45 46 51
28641 5270 11267 45 46 51
27724 5476 11489 73 72 74
27265 5952 11947 137 150 148
27489 5728 11947 137 150 148
27265 5728 12171 137 150 148
26807 5728 12162 112 103 96
27265 5728 11724 137 150 148
27025 5728 11489 129 120 111
27265 5469 11489 103 104 96
28182 5484 11030 168 162 142
28182 5270 10815 168 162 142
28397 5270 11030 168 162 142
27724 5449 11030 84 77 75
27724 5451 10572 201 194 173
27724 5270 10391 201 194 173
27905 5270 10572 201 194 173
27030 5728 11030 112 117 116
27397 5728 10572 153 143 123
27265 5860 10572 153 143 123
27265 5728 10704 153 143 123
27265 5728 10440 153 143 123
27265 5427 11030 81 81 83
28641 5043 11947 84 94 104
28182 5051 11947 50 49 51
27724 4811 12172 150 141 123
27949 4811 11947 150 141 123
28182 4811 11707 166 163 150
28641 4811 11711 135 143 142
28641 4811 11267 135 143 142
27724 4586 11947 150 141 123
28182 4353 11713 187 199 192
28641 4353 11716 161 172 177
28182 4129 11489 187 199 192
28641 4126 11489 161 172 177
27724 4353 11711 114 114 109
27265 4586 11947 147 145 126
27029 4353 11947 113 114 113
26807 4353 12170 113 114 113
27265 4353 11708 130 127 119
28398 4811 11030 194 191 180
28182 5024 10572 209 205 189
28395 4811 10572 209 205 189
28182 4811 10359 209 205 189
27724 4811 10387 206 209 205
28641 4353 10802 197 206 202
28641 4581 11030 197 206 202
28182 4353 10356 213 215 214
28398 4353 10572 213 215 214
28641 4122 10572 219 217 210
25890 5270 10262 137 135 124
24973 5270 10320 159 157 153
25432 5270 10318 132 134 134
27724 5969 9655 126 114 78
28182 5969 9655 69 62 49
26807 5728 10024 176 167 146
26896 5728 10114 176 167 146
27265 5967 9655 122 102 70
26807 5970 9655 80 67 55
27265 5396 10114 197 179 151
27265 5270 9987 197 179 151
27392 5270 10114 197 179 151
26807 5270 10024 176 170 149
27724 5983 9197 86 79 71
27265 6016 9197 103 86 66
26807 6034 9197 129 115 80
28182 4099 10114 220 217 202
27908 4353 10114 197 192 179
27724 4536 10114 197 192 179
27724 4353 9930 197 192 179
27407 4811 10114 208 209 198
27265 4811 9972 208 209 198
26807 4885 9655 214 214 199
26807 4811 9581 214 214 199
26881 4811 9655 214 214 199
27385 4353 9655 209 205 188
27265 4472 9655 209 205 188
27265 4353 9535 209 205 188
26807 4353 9563 209 206 197
27265 4353 8498 188 156 103
27265 4571 8280 188 156 103
27483 4353 8280 188 156 103
26807 4353 8476 201 154 101
26807 4549 8280 201 154 101
26807 4156 8280 201 154 101
26348 5728 10073 121 110 91
25890 5777 10114 83 83 79
26084 5728 10114 83 83 79
25890 5728 10174 83 83 79
25663 5728 10114 83 83 79
25890 5837 9655 144 133 113
26348 5989 9655 76 65 61
26348 5426 10114 138 132 120
26427 5270 10114 138 132 120
26348 5270 10207 138 132 120
26348 5270 9759 210 207 194
26355 5270 9655 210 207 194
26348 5270 9648 210 207 194
26348 5276 9655 210 207 194
26324 5270 9655 210 207 194
25432 5728 10049 109 115 113
24963 5728 10114 137 136 141
24973 5708 10114 137 136 141
24973 5728 10109 137 136 141
24973 6087 9655 125 120 115
25432 5980 9655 94 89 91
25432 5548 10114 109 115 113
25890 6038 9197 52 53 68
26348 6025 9197 111 80 53
24973 6128 9197 96 95 96
25432 6028 9197 93 85 76
26348 5058 10114 138 132 120
25890 4953 10114 121 125 116
25890 4811 10058 121 125 116
26305 4811 9655 204 207 202
26348 4811 9598 204 207 202
26348 4643 9655 204 207 202
25890 4353 9797 184 182 173
26348 4353 9732 201 193 187
26414 4353 9655 201 193 187
26348 4353 9404 221 224 214
26348 4178 9655 201 193 187
25432 4919 10114 114 117 113
25432 4811 10052 114 117 113
24973 4867 10114 136 126 124
24973 4811 10086 136 126 124
25432 4353 9828 150 143 136
24973 4353 9840 156 145 140
26348 4430 9197 221 224 214
26348 4353 9181 221 224 214
26364 4353 9197 221 224 214
26295 4353 9197 221 224 214
26611 4353 8280 201 154 101
26119 3894 12406 145 144 149
25890 3666 12406 145 144 149
25890 3894 12634 145 144 149
25432 3672 12406 134 125 135
25432 3894 12628 134 125 135
24973 3894 12632 159 163 170
24973 3668 12406 159 163 170
32051 3894 11030 98 86 70
31850 4095 11030 98 86 70
31850 3894 11231 98 86 70
31850 3894 10829 98 86 70
31850 3693 11030 98 86 70
31649 3894 11030 98 86 70
31536 3894 10572 101 88 75
31391 4039 10572 101 88 75
31246 3894 10572 101 88 75
31391 3894 10717 101 88 75
31391 3894 10427 101 88 75
31391 3749 10572 101 88 75
28868 3894 10572 219 217 210
28864 3894 11030 156 160 155
28866 3436 11030 235 233 233
30474 3894 10193 138 125 95
30554 3894 10114 138 125 95
30474 3894 10034 138 125 95
30395 3894 10114 138 125 95
30474 3815 10114 138 125 95
27950 3894 11489 92 87 82
27724 3894 11715 92 87 82
27724 3668 11489 92 87 82
27029 3894 11947 113 123 132
26807 3894 12170 113 123 132
26807 3672 11947 113 123 132
27265 3894 11715 116 120 106
27265 3668 11489 116 120 106
26807 3436 11716 230 216 203
27034 3436 11489 230 216 203
28641 3894 11253 156 160 155
28182 3894 11246 161 158 151
28641 3894 10344 219 217 210
28641 3666 10572 219 217 210
28641 3436 11256 235 233 233
28182 3436 11255 237 234 232
28641 3436 10805 235 233 233
28641 3211 11030 235 233 233
28182 3212 11030 237 234 232
27724 3214 11030 233 230 225
27724 3436 11252 233 230 225
28387 3436 10572 233 231 229
28182 3231 10572 233 231 229
27724 3233 10572 234 228 224
27265 3436 11250 214 206 202
26807 2977 11715 228 210 199
27033 2977 11489 228 210 199
26807 2751 11489 228 210 199
27724 2742 10572 236 229 226
27724 2977 10337 231 232 228
27724 2519 10795 236 229 226
27947 2519 10572 236 229 226
27724 2061 10341 180 173 154
27724 2296 10572 236 229 226
27265 2977 11257 220 212 204
27492 2977 11030 220 212 204
26807 2754 11030 212 200 192
27474 2977 10572 234 228 223
27491 2519 11030 181 177 163
27265 2519 11256 181 177 163
27265 2294 11030 181 177 163
27265 2061 10798 199 193 171
27040 2519 11030 181 177 163
26807 2519 10783 211 203 189
27492 2061 10572 199 193 171
26807 2308 10572 211 203 189
26807 2061 10313 196 191 172
27039 2061 10572 199 193 171
26348 3894 12168 109 111 114
26575 3436 11947 149 144 154
26348 3436 12174 149 144 154
26348 3209 11947 149 144 154
25890 3436 12173 143 138 147
26348 3214 11489 217 204 193
24973 3436 12169 175 177 180
25432 3436 12170 171 166 171
26115 2977 11947 184 175 180
25890 2753 11947 184 175 180
25890 2977 12172 184 175 180
26102 2977 11489 226 222 222
26581 2977 11489 228 210 199
25890 2519 11703 235 230 233
26104 2519 11489 235 230 233
25890 2519 11275 235 230 233
25890 2305 11489 235 230 233
25652 2061 11489 208 197 192
25432 2750 11947 189 183 183
25432 2977 12175 189 183 183
24745 2977 11947 188 193 195
24973 2977 12175 188 193 195
24973 2749 11947 188 193 195
25432 2519 11707 189 184 184
25432 2061 11710 208 197 192
25432 2061 11268 208 197 192
24973 2519 11709 209 203 199
24753 2519 11489 209 203 199
24973 2061 11714 213 205 199
24973 2061 11264 213 205 199
24748 2061 11489 213 205 199
26348 2763 11030 208 193 181
26348 2977 11245 208 193 181
25890 2769 11030 224 210 200
25890 2787 10572 205 188 173
26348 2784 10572 216 206 197
25620 2519 11030 210 198 192
26596 2519 10572 211 203 189
26348 2519 10291 204 199 180
25432 2825 10572 234 228 228
25432 2519 10842 210 198 192
25432 2330 11030 210 198 192
24973 2328 11030 216 208 202
24725 2061 11030 219 206 197
25129 2519 10572 209 198 191
24973 2519 10416 209 198 191
24973 2363 10572 209 198 191
28182 3894 9908 220 217 202
28387 3894 10114 220 217 202
27724 3894 9928 222 227 223
27724 3637 9655 221 224 217
28409 3436 10114 226 229 220
28182 3436 9886 226 229 220
28182 3209 10114 226 229 220
28182 3198 9655 211 213 199
27925 3436 9655 221 224 217
27724 3436 9454 221 224 217
27265 3894 9515 221 225 220
27405 3894 9655 221 225 220
27265 3595 9197 196 195 182
26945 3894 9197 221 223 213
26807 3894 9059 221 223 213
26807 4032 9197 221 223 213
27265 3894 8502 206 182 148
27488 3894 8280 206 182 148
27265 3672 8280 206 182 148
27043 3894 8280 206 182 148
27265 3436 9038 196 195 182
27424 3436 9197 196 195 182
26807 3436 9065 228 231 228
26807 3081 8738 202 203 177
27948 2977 10114 231 232 228
28182 2977 9876 211 213 199
28403 2977 9655 211 213 199
28182 2977 9434 211 213 199
27724 2977 9449 225 227 225
28182 2519 9879 206 211 190
28182 2061 9884 201 200 179
27951 2519 10114 221 218 210
27952 2061 10114 180 173 154
27724 2061 9886 180 173 154
28182 2519 9431 206 211 190
28406 2519 9655 206 211 190
28182 2061 9426 201 200 179
28411 2061 9655 201 200 179
27953 2061 9655 201 200 179
27724 2310 9655 189 196 180
26807 2061 9914 196 191 172
27265 2061 9909 182 176 157
26807 2348 9655 179 176 154
27265 2326 9655 224 232 222
27724 2710 9197 197 196 170
27915 2519 9197 197 196 170
27724 2519 9005 197 196 170
27724 2328 9197 197 196 170
27265 2977 9038 213 218 201
27424 2977 9197 213 218 201
26911 2977 8738 202 203 177
26807 2873 8738 202 203 177
26807 2977 8634 202 203 177
27265 2354 9197 201 205 184
27265 2519 9032 201 205 184
26807 2519 9056 165 167 152
26807 2379 9197 165 167 152
25890 4032 9655 233 227 224
25432 3914 9655 212 206 200
25225 3894 9655 212 206 200
24973 3885 9655 204 195 187
24973 3894 9662 204 195 187
24959 3894 9655 204 195 187
24973 3436 9375 213 204 193
25432 3436 9407 225 218 213
26348 3933 8738 154 153 142
26387 3894 8738 154 153 142
25890 4085 9197 232 228 228
25890 3894 8733 226 230 228
25890 3913 8738 226 230 228
25837 3894 8738 226 230 228
26348 3894 8699 154 153 142
26400 3436 8738 218 222 213
25621 3436 9197 225 218 213
25890 3436 8731 234 238 234
25881 3436 8738 234 238 234
26348 3436 8687 218 222 213
25432 3908 9197 224 220 219
25432 3856 9197 224 220 219
25410 3894 9197 224 220 219
25432 3894 9147 224 220 219
25890 2837 10114 205 196 178
26348 2342 10114 204 199 180
26171 2519 10114 204 199 180
26607 2061 10114 196 191 172
25890 2519 9778 199 194 177
26348 2390 9655 189 182 163
25767 2519 9655 199 194 177
25890 2396 9655 199 194 177
25432 2752 10114 210 204 185
24973 2876 10114 210 199 192
25432 2913 9655 208 200 185
25432 2977 9263 203 193 179
24973 2784 9655 211 200 183
24973 2977 9231 205 199 180
24620 2519 10114 215 199 186
26348 2919 8738 208 213 194
25890 2969 8738 166 168 154
25816 2977 8738 166 168 154
25890 2977 8678 166 168 154
26348 2977 8680 208 213 194
26348 2398 9197 176 172 153
26348 2519 9076 176 172 153
25890 2458 9197 179 172 153
25890 2519 9136 179 172 153
25507 2977 9197 203 193 179
25432 2795 9197 203 193 179
25432 2519 9215 194 189 171
25413 2519 9197 194 189 171
25432 2501 9197 194 189 171
25432 2519 9178 194 189 171
27265 1834 10572 199 193 171
25432 1840 11489 208 197 192
24973 1836 11489 213 205 199
28182 1831 9655 201 200 179
27724 1833 10114 180 173 154
27265 1856 10114 182 176 157
26807 1861 10114 196 191 172
23598 8020 14464 74 83 95
24056 8020 14463 75 84 94
24056 7562 14467 49 47 58
23598 7562 14466 79 91 103
23140 8020 14463 99 116 128
22681 8020 14464 104 121 134
23140 7562 14466 99 110 123
22681 7562 14467 105 121 137
22223 8020 14464 101 112 125
21764 8020 14465 95 101 112
21764 7326 15156 119 127 129
22223 7562 14466 108 125 135
21764 7562 14467 108 126 137
20847 8020 14463 112 119 120
21306 8020 14464 104 103 112
21306 7562 14468 111 130 143
20847 7562 14467 117 138 150
21764 7103 15379 119 127 129
21987 7103 15156 119 127 129
21541 7103 15156 119 127 129
21764 7103 14933 119 127 129
21764 6880 15156 119 127 129
24515 8020 14000 89 99 109
24280 8020 14239 75 84 94
24284 7562 14239 49 47 58
24515 7562 14006 96 102 108
23598 7335 14239 79 91 103
24056 7334 14239 49 47 58
24515 7337 13781 96 102 108
23140 7335 14239 99 110 123
22681 7334 14239 105 121 137
23598 7103 14003 76 84 89
24056 7103 14004 76 75 80
24515 7103 13542 90 92 103
24280 7103 13781 76 75 80
24056 6645 14009 64 63 73
23598 6645 14008 66 73 83
24284 6645 13781 64 63 73
24515 6645 13548 93 88 93
24515 6186 13551 82 77 83
23598 6418 13781 66 73 83
24056 6417 13781 64 63 73
23598 6186 13545 50 48 52
24056 6186 13545 68 61 67
23140 7103 14005 90 99 111
22681 7103 14004 103 113 121
23140 6645 14006 83 89 97
22681 6645 14005 84 88 94
22681 6186 14009 62 60 68
23140 6419 13781 83 89 97
23140 6186 13544 64 62 64
22910 6186 13781 62 60 68
21764 7334 14239 108 126 137
22223 7335 14239 108 125 135
20847 7334 14239 117 138 150
21306 7333 14239 111 130 143
22223 7103 14004 100 111 118
21764 7103 14003 105 116 120
22223 6645 14006 86 92 96
22223 6186 14009 69 70 75
21764 6645 14007 92 98 101
21764 6186 14009 70 71 75
21306 7103 14003 115 126 120
20847 7103 14002 117 130 132
21306 6645 14007 97 106 104
21306 6186 14009 69 71 76
20847 6645 14008 100 108 111
20847 6186 14009 70 72 76
24283 5728 13323 87 41 45
24515 5958 13323 82 77 83
24056 5728 13549 87 41 45
23598 5728 13549 106 62 72
24515 5270 13551 116 123 126
24515 5498 13323 116 123 126
24056 5270 13550 72 71 76
23598 5270 13550 146 153 166
23140 5728 13547 94 57 69
22681 5958 13781 62 60 68
22681 5728 13546 91 52 64
23140 5270 13549 150 159 173
22681 5270 13548 139 147 159
24515 5728 13088 113 81 91
24515 5504 12864 113 81 91
24515 5270 13094 116 123 126
23598 5514 12864 130 112 118
24056 5512 12864 87 54 64
23598 5270 13095 146 153 166
24056 5270 13095 72 71 76
24515 5270 12626 143 138 141
23598 5270 12625 142 138 129
24056 5270 12626 147 141 129
23366 5270 12864 175 167 164
24515 5041 13323 116 123 126
24056 5042 13323 72 71 76
23598 5042 13323 146 153 166
23140 5043 13323 150 159 173
22681 5045 13323 139 147 159
24515 4811 12628 134 135 145
23598 4811 12627 167 149 146
24056 4811 12628 138 117 116
24291 4353 12406 132 136 144
24515 4353 12629 132 136 144
23598 4353 12633 102 97 89
24056 4589 12406 138 117 116
23825 4353 12406 102 97 89
24056 4120 12406 52 51 54
23140 4811 13090 155 149 170
23366 4811 12864 155 149 170
22681 4811 13088 128 129 141
23140 4585 12864 155 149 170
22908 4353 12864 91 98 107
22681 4353 13091 91 98 107
22681 4126 12864 91 98 107
23140 4353 12631 100 98 88
22223 5728 13545 101 57 63
22223 5958 13781 69 70 75
21764 5728 13546 107 65 67
21764 5958 13781 70 71 75
21764 5270 13546 115 121 129
22223 5270 13548 95 102 114
21306 5958 13781 69 71 76
21306 5728 13547 83 68 65
20847 5728 13547 85 70 66
20847 5958 13781 70 72 76
21306 5270 13547 121 127 135
20847 5270 13547 100 106 114
21764 5046 13323 115 121 129
22223 5044 13323 95 102 114
21306 5045 13323 121 127 135
20616 4811 13323 168 177 182
20847 5045 13323 100 106 114
21764 4811 13087 114 117 125
22223 4811 13088 97 109 121
22223 4125 12864 92 100 110
22223 4353 13092 92 100 110
21764 4126 12864 98 104 109
21764 4353 13091 98 104 109
20847 4811 13086 119 125 132
21306 4811 13088 117 127 136
21306 4353 13089 99 105 112
21080 4353 12864 99 105 112
21306 4127 12864 99 105 112
20616 4353 12864 99 107 114
20847 4589 12864 119 125 132
20847 4353 12629 112 107 97
20389 8020 14463 108 130 135
19472 8020 14465 109 108 113
19930 8020 14463 108 118 120
20389 7562 14466 117 142 155
19472 7562 14464 105 117 127
19930 7562 14465 110 126 129
18555 8020 14463 145 145 146
19014 8020 14464 110 112 117
19014 7562 14467 124 144 149
18555 7562 14468 136 152 155
18097 8020 14463 149 161 159
17638 8020 14463 154 163 164
17638 7562 14467 134 145 144
18097 7562 14467 134 146 147
16721 8020 14461 161 172 172
17180 8020 14462 158 168 168
17180 7562 14466 133 143 144
16721 7562 14466 146 165 163
16721 7103 14467 120 139 154
20389 7335 14239 117 142 155
19472 7337 14239 105 117 127
19930 7336 14239 110 126 129
19014 7334 14239 124 144 149
18555 7334 14239 136 152 155
20389 7103 14002 116 129 139
19930 7103 14003 125 141 149
19472 7103 14003 119 124 122
20389 6645 14008 70 75 82
20389 6186 14008 45 45 51
19930 6645 14007 99 108 109
19472 6645 14007 86 93 93
19472 6186 14008 57 58 61
19930 6186 14009 64 64 67
18555 7103 14004 143 151 149
19014 7103 14004 131 130 133
19014 6645 14007 108 116 117
19014 6186 14008 68 68 74
18555 6645 14007 106 117 122
18555 6186 14009 68 70 74
18097 7334 14239 134 146 147
17638 7334 14239 134 145 144
17180 7335 14239 133 143 144
17638 7103 14002 156 168 168
18097 7103 14003 152 165 164
18097 6645 14006 111 122 125
18097 6186 14009 71 72 77
17638 6645 14006 109 118 119
17638 6186 14009 86 84 89
16949 7103 14239 120 139 154
17180 7103 14001 160 170 169
16494 7103 14239 120 139 154
16721 6875 14239 120 139 154
17180 6186 14009 73 75 80
17180 6645 14006 114 123 125
16721 6186 14007 76 77 81
16721 6645 14005 126 135 131
20389 5959 13781 45 45 51
20389 5728 13546 67 41 44
19930 5959 13781 64 64 67
19472 5960 13781 57 58 61
19930 5728 13547 77 67 70
19472 5728 13547 66 55 56
20389 5270 13545 141 142 149
19472 5270 13546 70 62 59
19930 5270 13549 64 57 64
19014 5959 13781 68 68 74
19014 5728 13547 87 73 71
18555 5728 13547 93 79 76
18555 5958 13781 68 70 74
19014 5270 13546 96 103 113
18555 5270 13548 118 146 169
20162 4811 13323 168 177 182
20389 4811 13550 168 177 182
19930 5043 13323 64 57 64
19472 5046 13323 70 62 59
20389 4584 13323 168 177 182
19014 4811 13538 98 112 131
19229 4811 13323 98 112 131
18555 5045 13323 118 146 169
18798 4811 13323 98 112 131
19014 4595 13323 98 112 131
19472 4811 13084 65 56 52
19930 4811 13091 51 47 45
20389 4126 12864 99 107 114
20389 4353 13091 99 107 114
19930 4353 13091 145 133 121
19472 4353 13091 131 119 106
19930 4126 12864 145 133 121
19472 4126 12864 131 119 106
18555 4811 13089 187 192 196
19014 4128 12864 90 101 108
19014 4353 13089 90 101 108
18555 4353 13090 92 102 104
18555 4127 12864 92 102 104
17638 5728 14010 76 52 60
18097 5728 13547 96 87 82
18097 5959 13781 71 72 77
17409 5728 13781 76 52 60
17867 5728 13781 76 52 60
18097 5270 13546 106 155 196
17638 5499 13781 76 52 60
17638 5270 13548 129 164 196
17180 5958 13781 73 75 80
17180 5728 13546 96 82 78
16721 5960 13781 76 77 81
16721 5728 13545 101 73 76
17180 5270 13547 122 110 117
16721 5270 13549 184 162 173
18097 5046 13323 106 155 196
17638 5044 13323 129 164 196
17409 4811 13323 89 90 94
17180 4811 13552 89 90 94
16951 4811 13323 89 90 94
16721 5043 13323 184 162 173
17180 4582 13323 89 90 94
18097 4811 13088 164 180 191
17638 4811 13088 147 155 156
18097 4353 13091 152 159 167
17638 4126 12864 157 164 175
17638 4353 13091 157 164 175
16721 4811 13088 197 182 177
17180 4126 12864 127 140 150
17180 4353 13091 127 140 150
16721 4125 12864 136 141 146
16721 4353 13092 136 141 146
24515 8020 11682 66 48 50
24056 8020 11682 84 82 89
23598 8020 11696 87 92 101
24056 7690 11489 90 79 87
24515 7562 11504 67 59 60
24556 7562 11489 67 59 60
24420 7562 11489 67 59 60
24515 7535 11489 67 59 60
24056 7562 11433 90 79 87
23598 7604 11489 83 83 95
23598 7562 11464 83 83 95
23140 8020 11788 80 89 94
22681 8020 11812 86 105 115
23140 7562 11573 75 86 92
23509 7562 11489 83 83 95
23140 7390 11489 75 86 92
22681 7353 11489 84 102 109
22681 7562 11589 84 102 109
23598 7103 11265 79 73 80
23140 7103 11343 70 77 84
22681 7103 11370 72 78 85
24515 7103 11237 68 39 38
24056 6743 11030 108 83 88
24056 7103 11246 91 69 74
24515 6645 11061 93 55 53
24571 6645 11030 93 55 53
24515 6595 11030 93 55 53
24333 6645 11030 93 55 53
23656 6645 11030 101 82 86
23598 6635 11030 101 82 86
23598 6645 11040 101 82 86
24056 6645 10985 108 83 88
24515 6469 10572 90 57 55
24056 6440 10572 98 79 84
23598 6490 10572 100 91 95
23140 6551 11030 79 57 62
23140 6645 11128 79 57 62
22681 6550 11030 70 49 54
22681 6645 11138 70 49 54
22681 6393 10572 133 111 111
23140 6420 10572 82 65 63
21764 8020 11859 106 123 132
22223 8020 11830 101 114 128
22223 7306 11489 83 90 94
22223 7562 11618 94 103 114
21764 7280 11489 85 91 96
21764 7562 11622 102 115 122
21306 8186 11947 113 130 141
21306 8020 11871 113 130 141
20847 8020 11901 115 133 140
20847 8126 11947 115 133 140
21306 7247 11489 86 92 94
21306 7562 11635 101 113 119
20847 7562 11655 105 117 122
20847 7242 11489 94 99 100
21764 7103 11403 85 91 96
22223 7103 11384 83 90 94
21306 7103 11422 86 92 94
20847 7103 11420 94 99 100
22223 6645 11146 74 57 59
22223 6533 11030 74 57 59
21764 6497 11030 77 60 59
21764 6645 11181 77 60 59
22223 6376 10572 135 131 130
21764 6338 10572 108 102 103
21306 6513 11030 75 65 69
21306 6645 11193 75 65 69
20847 6645 11202 75 69 67
20847 6531 11030 75 69 67
21306 6325 10572 110 108 109
20847 6280 10572 122 117 127
24515 6186 9920 113 91 87
24515 6392 10114 113 91 87
23598 6366 10114 129 125 113
24056 6378 10114 118 110 102
24056 6186 9924 118 110 102
23598 6186 9777 123 113 108
22681 6357 10114 131 126 133
23140 6380 10114 118 113 107
22681 6186 9661 134 130 135
23140 6186 9690 114 118 113
22223 6186 9752 159 155 164
22223 6358 10114 134 115 122
21764 6186 9873 129 124 130
21764 6344 10114 131 127 130
21306 6342 10114 109 106 110
21306 6186 9843 101 108 119
20847 6337 10114 136 131 138
20847 6186 9678 130 129 127
24515 5270 10250 143 142 151
24515 5728 10324 146 153 157
24056 4353 12169 106 111 108
22310 5728 10572 147 149 162
22223 5799 10572 147 149 162
22223 5728 10641 147 149 162
21764 5728 10614 118 116 124
21764 5835 10572 118 116 124
21666 5728 10572 118 116 124
22223 5525 10572 147 149 162
22223 5270 10451 138 126 134
21764 5270 10476 110 111 119
21764 5501 10572 118 116 124
21306 5270 10305 99 98 102
21306 5728 10396 115 124 133
21764 4811 10246 76 70 71
22223 4811 10252 76 73 71
24515 6007 10114 113 91 87
24056 5792 10114 144 148 156
24056 5728 10180 144 148 156
23882 5728 10114 144 148 156
23598 5728 10037 133 136 142
24093 5270 10114 150 151 160
24056 5270 10100 150 151 160
24056 5346 10114 150 151 160
23598 5270 9972 121 123 126
23140 5728 9758 119 115 113
22681 5728 10164 155 152 169
22681 5756 10114 155 152 169
22715 5728 10114 155 152 169
22582 5270 10114 113 112 113
22681 5567 10114 155 152 169
23140 5270 9721 105 102 93
22681 5270 9709 91 101 102
24515 4832 10114 149 144 145
24515 4811 10102 149 144 145
24056 4811 10052 141 141 149
23584 4811 10114 109 101 103
23598 4811 10111 109 101 103
24515 4353 9843 168 158 146
24056 4353 9844 143 137 134
23598 4353 9914 115 105 96
24515 4178 9655 168 158 146
23598 4259 9655 129 121 111
24056 4144 9655 143 137 134
23140 4870 10114 86 81 68
23140 4811 10163 86 81 68
23140 4620 10114 86 81 68
22681 4811 10196 73 72 69
22681 5086 10114 113 112 113
23140 4331 10114 67 88 91
23140 4353 10003 67 88 91
22681 4353 10036 78 99 121
22681 4538 10114 78 99 121
22681 4353 9340 72 109 145
23140 4353 9375 42 41 48
23292 4353 9197 42 41 48
23140 4442 9197 42 41 48
23140 4353 9055 42 41 48
23140 4312 9197 42 41 48
22681 4417 9197 72 109 145
22681 4353 9164 72 109 145
22681 4319 9197 72 109 145
21764 5954 10114 129 121 129
22223 5927 10114 143 137 136
21306 5954 10114 104 117 128
20847 5792 10114 122 125 131
20758 5728 10114 122 125 131
20847 5728 10203 122 125 131
20847 5545 10114 122 125 131
20847 5270 10049 102 102 103
20972 5270 10114 102 102 103
22223 4353 10044 104 139 172
22223 4505 10114 104 139 172
21764 4353 10046 94 130 147
21764 4502 10114 94 130 147
22223 4353 9326 141 233 238
21764 4353 9345 207 247 248
21306 4811 10190 73 67 69
20847 4886 10114 72 67 67
20847 4811 10128 72 67 67
20811 4811 10114 72 67 67
20847 4688 10114 72 67 67
21306 4353 10018 80 120 130
21306 4531 10114 80 120 130
20847 4353 10031 79 113 121
21306 4353 9330 167 234 245
21306 4196 9655 110 175 184
20847 4196 9655 102 125 132
20847 4353 9329 126 213 230
22223 4409 9197 141 233 238
22223 4353 9167 141 233 238
22223 4323 9197 141 233 238
21764 4353 9040 207 247 248
21764 4413 9197 207 247 248
21306 4404 9197 167 234 245
21306 4353 9068 167 234 245
20847 4403 9197 126 213 230
20847 4353 9065 126 213 230
20389 8020 11902 117 137 151
20389 8117 11947 117 137 151
19930 8020 11911 112 128 135
19930 8112 11947 112 128 135
19472 8106 11947 117 128 127
19472 8020 11903 117 128 127
20389 7201 11489 106 112 106
20389 7562 11666 112 124 125
19472 7562 11701 103 117 130
19930 7562 11677 105 121 128
19472 7177 11489 96 100 99
19930 7181 11489 90 94 96
19014 8109 11947 102 117 115
19014 8020 11905 102 117 115
18555 8020 11901 104 101 108
18555 8108 11947 104 101 108
19014 7562 11706 123 137 136
18555 7562 11692 129 115 104
20389 7103 11436 106 112 106
19472 7103 11447 96 100 99
19930 7103 11450 90 94 96
19014 7103 11461 109 113 116
19014 7154 11489 109 113 116
18555 7145 11489 107 112 113
18555 7103 11468 107 112 113
20389 6645 11213 77 72 68
20389 6504 11030 77 72 68
19930 6645 11224 69 67 65
19930 6486 11030 69 67 65
19472 6478 11030 66 63 63
19472 6645 11230 66 63 63
20389 6295 10572 93 91 101
19930 6290 10572 110 96 99
19472 6260 10572 103 84 81
19014 6453 11030 85 82 82
19014 6645 11241 85 82 82
18555 6645 11247 91 90 87
18555 6462 11030 91 90 87
19014 6235 10572 115 93 92
18555 6242 10572 111 84 118
18097 8020 11906 127 125 118
18097 8099 11947 127 125 118
17638 8064 11947 148 150 151
17638 8020 11924 148 150 151
18097 7562 11691 141 136 137
17638 7562 11704 156 169 169
17180 8024 11947 154 166 168
17180 8020 11945 154 166 168
17142 8020 11947 154 166 168
16721 8068 11947 176 186 188
16721 8020 11967 176 186 188
16643 8020 11947 176 186 188
16721 7974 11947 176 186 188
16721 7562 11752 171 185 184
17180 7562 11730 160 173 174
18097 7145 11489 132 145 142
18097 7103 11468 132 145 142
17646 7103 11489 142 153 149
17638 7103 11489 142 153 149
17180 7103 11515 145 157 154
17180 7051 11489 145 157 154
16721 7103 11529 148 159 154
16721 7025 11489 148 159 154
17180 6645 11283 116 120 115
16721 6645 11292 119 120 115
18097 6645 11248 100 101 99
18097 6453 11030 100 101 99
17638 6445 11030 106 111 107
17638 6645 11260 106 111 107
17638 6200 10572 126 117 137
18097 6245 10572 117 112 129
17180 6414 11030 111 98 111
16721 6401 11030 111 97 107
17180 6189 10572 128 98 106
16944 6186 10572 136 113 125
16721 6186 10579 136 113 125
16721 6184 10572 136 113 125
16721 6186 10558 136 113 125
20389 6186 9732 150 150 153
20389 6333 10114 129 125 125
19472 6316 10114 88 77 73
19930 6338 10114 131 130 134
19968 6186 9655 110 110 113
19930 6186 9648 110 110 113
19930 6189 9655 110 110 113
19472 6186 9617 107 105 109
19472 6196 9655 107 105 109
19014 6266 10114 98 81 86
19014 6186 9912 98 81 86
18555 6186 9792 114 112 121
18555 6272 10114 114 97 120
19425 6186 9655 107 105 109
18097 6251 10114 128 115 134
18097 6186 9777 123 134 152
17638 6186 9971 168 152 162
17638 6240 10114 168 152 162
17180 6243 10114 145 111 117
17180 6186 9888 145 111 117
16721 6186 9867 143 105 110
16721 6229 10114 156 103 108
19014 5728 10303 94 97 102
17638 5270 10291 145 155 161
17638 5728 10439 167 171 186
20389 5728 9848 119 120 123
19930 6006 9655 110 110 113
19930 5728 9667 126 126 130
19930 5702 9655 126 126 130
19902 5728 9655 126 126 130
19472 5728 9393 125 121 114
20389 5270 9743 103 95 86
20221 5270 9655 103 95 86
19930 5270 9543 119 101 85
19930 5122 9655 119 101 85
19472 5120 9655 105 99 90
19165 5728 10114 94 97 102
19014 5943 10114 94 97 102
18867 5728 10114 94 97 102
18555 5728 9729 111 115 120
19346 5728 9655 125 118 112
19014 5270 10173 128 112 104
19061 5270 10114 128 112 104
18962 5270 10114 128 112 104
19325 5270 9655 105 99 90
18555 5490 9655 121 121 117
18619 5270 9655 121 121 117
18555 5270 9602 121 121 117
18555 5205 9655 121 121 117
19472 5303 9197 83 76 71
19480 5270 9197 83 76 71
19472 5270 9190 83 76 71
19466 5270 9197 83 76 71
19472 5263 9197 83 76 71
20389 4811 9960 66 61 61
19930 4811 9895 73 67 62
19472 4811 9857 51 49 49
20389 4353 9961 70 86 92
19930 4353 9949 47 57 70
19472 4353 10075 33 47 60
20389 4219 9655 80 89 99
20389 4353 9358 162 208 218
19472 4353 9351 36 37 43
19472 4221 9655 62 105 111
19930 4190 9655 54 73 80
19014 4811 10038 71 68 68
19014 5104 10114 128 112 104
18555 4811 9853 61 55 54
19014 4353 10099 37 41 52
18754 4353 10114 44 58 74
18555 4359 10114 44 58 74
18555 4353 10122 44 58 74
18555 4349 10114 44 58 74
19014 4196 9655 57 127 154
19014 4353 9327 38 42 52
18555 4353 9295 87 106 120
18555 4191 9655 72 142 166
20389 4353 9054 162 208 218
20389 4412 9197 162 208 218
19907 4353 9197 38 54 71
19951 4353 9197 38 54 71
19472 4413 9197 36 37 43
19472 4353 9052 36 37 43
19930 4338 9197 38 54 71
19014 4353 9066 38 42 52
19014 4405 9197 38 42 52
18555 4353 9095 87 106 120
18555 4391 9197 87 106 120
17941 5728 10114 145 152 160
17638 6054 10114 168 152 162
18097 5728 9690 128 141 147
17807 5270 10114 145 155 161
17501 5270 10114 145 155 161
18097 5270 9660 125 128 130
18115 5270 9655 125 128 130
17379 5728 10114 156 155 158
17180 5728 9903 156 155 158
16721 5728 9810 153 142 131
16610 5728 10114 167 155 135
16452 5270 10114 151 150 139
17180 5270 9744 130 135 137
16721 5270 9680 137 140 142
18097 4811 9896 96 90 89
17638 4811 10087 99 96 94
17638 4885 10114 99 96 94
18097 4360 10114 47 65 82
18097 4353 10121 47 65 82
18097 4350 10114 47 65 82
17638 4463 10114 56 72 85
17638 4353 10126 56 72 85
17638 4348 10114 56 72 85
18097 4183 9655 103 120 158
18097 4353 9295 186 220 230
17638 4185 9655 106 121 149
17638 4353 9276 168 224 230
17180 4811 9835 85 84 82
16721 4811 9853 85 83 80
17180 4353 10130 59 86 96
17180 4365 10114 59 86 96
17180 4346 10114 59 86 96
16721 4353 10123 44 45 54
16721 4361 10114 44 45 54
16486 4353 10114 45 50 57
16721 4348 10114 44 45 54
17180 4183 9655 101 107 120
17180 4353 9275 113 152 176
16721 4179 9655 49 51 89
16721 4353 9250 43 102 140
18097 4392 9197 186 220 230
18097 4353 9099 186 220 230
17638 4384 9197 168 224 230
17638 4353 9117 168 224 230
17180 4384 9197 113 152 176
17180 4353 9115 113 152 176
16721 4353 9136 43 102 140
16721 4374 9197 43 102 140
16593 4353 9197 43 102 140
24515 3666 12406 137 145 151
24515 3894 12633 137 145 151
23598 3894 12631 53 50 49
24056 3894 12632 52 51 54
24056 3668 12406 52 51 54
23827 3436 12406 131 126 156
23598 3436 12635 131 126 156
23598 3207 12406 131 126 156
22681 3894 12630 60 58 61
23140 3894 12630 53 51 53
23140 3436 12634 127 221 225
23140 3207 12406 127 221 225
22681 3436 12632 156 211 224
22681 3210 12406 156 211 224
22223 3894 12630 64 65 68
21764 3894 12629 73 67 70
22223 3209 12406 146 162 167
22223 3436 12632 146 162 167
21764 3436 12632 89 99 103
21764 3209 12406 89 99 103
21306 3894 12628 73 67 67
20847 3894 12627 68 65 66
21306 3436 12632 73 87 94
20847 3211 12406 58 76 87
20847 3436 12631 58 76 87
21532 2977 12406 71 98 124
21306 2977 12632 71 98 124
21079 2977 12406 71 98 124
21306 2751 12406 71 98 124
20389 3894 12628 66 66 69
19472 3894 12625 62 62 67
19930 3894 12628 76 75 73
20389 3208 12406 34 34 37
20389 3436 12633 34 34 37
19472 3436 12632 43 44 52
19930 3436 12632 35 37 44
19472 3209 12406 43 44 52
19930 3209 12406 35 37 44
19014 3894 12628 66 66 68
18555 3894 12631 81 78 78
19014 3436 12632 45 47 54
19014 3210 12406 45 47 54
18555 3210 12406 43 47 55
18555 3436 12631 43 47 55
18325 3894 12864 76 70 72
18097 3894 13092 76 70 72
18097 3666 12864 76 70 72
17869 3894 12864 76 70 72
17638 3894 12627 67 67 73
18097 3436 12631 50 65 67
18097 3211 12406 50 65 67
17638 3436 12631 81 88 100
17638 3210 12406 81 88 100
16491 3894 12864 93 86 86
16721 3894 12628 95 90 94
17180 3894 12631 111 112 107
17180 3436 12631 91 100 113
16721 3211 12406 58 67 79
16721 3436 12631 58 67 79
17408 2977 12406 29 43 56
16952 2977 12406 29 43 56
17180 2977 12634 29 43 56
17180 2749 12406 29 43 56
23598 3694 11489 51 81 93
24056 3694 11489 89 98 109
24515 3211 11947 133 137 143
24515 3436 12172 133 137 143
24056 3436 12166 50 52 56
23598 3217 11947 60 89 114
24056 3217 11947 50 52 56
24301 3436 11489 184 184 182
24056 3436 11729 50 52 56
23598 3436 11728 60 89 114
22681 3217 11947 142 223 238
23140 3218 11947 138 208 227
23341 3436 11489 94 198 227
23140 3436 11287 94 198 227
23140 3234 11489 94 198 227
22681 3236 11489 101 234 243
23598 3728 11030 79 104 135
23598 3756 10572 97 97 98
24056 3436 11254 169 170 166
23833 3436 11030 169 170 166
24056 3212 11030 169 170 166
23868 3436 10572 184 185 182
23598 3436 10286 176 175 167
23140 3731 11030 79 100 130
23140 3894 10438 47 52 63
23140 3761 10572 47 52 63
22681 3727 10572 140 207 223
22681 3436 10814 233 253 251
22898 3436 11030 233 253 251
22681 3219 11030 233 253 251
24296 2977 11489 197 192 184
24515 2977 11708 197 192 184
24515 2758 11489 197 192 184
24323 2977 11030 199 199 195
24056 2977 10785 192 190 184
23844 2977 10572 192 190 184
24515 2519 11236 212 205 198
24310 2519 11030 212 205 198
24305 2061 11030 219 206 197
24515 2061 11240 219 206 197
24515 2061 10821 219 206 197
24056 2519 10794 211 201 192
24056 2061 10794 225 209 201
24515 2355 10572 215 205 199
24278 2061 10572 225 209 201
23834 2519 10572 211 201 192
24056 2061 10350 225 209 201
23835 2061 10572 225 209 201
22223 3217 11947 114 159 169
21764 3218 11947 97 126 135
22223 3236 11489 102 204 227
21764 3243 11489 39 44 48
21306 3221 11947 82 90 99
20847 3218 11947 82 100 111
21306 3251 11489 42 42 50
20847 3256 11489 45 65 87
21764 3747 10572 121 215 229
21764 3436 10819 253 254 254
22411 3436 10572 123 227 250
22034 3436 10572 123 227 250
22223 3436 10383 123 227 250
22223 3247 10572 123 227 250
21517 3436 10572 93 98 111
21306 2977 12179 71 98 124
22445 2977 11030 91 194 229
22223 2977 11253 91 194 229
22223 2977 10808 91 194 229
22223 2755 11030 91 194 229
21764 2977 10812 231 255 255
21764 2977 11249 231 255 255
21764 2759 11030 231 255 255
21764 2733 10572 239 249 248
21515 2977 10572 157 162 162
21764 2519 10786 239 249 248
21532 2519 11030 165 230 255
21764 2305 10572 239 249 248
21978 2519 10572 239 249 248
21764 2519 10358 239 249 248
21527 2061 10572 78 113 137
21306 2977 11251 254 254 255
20847 2977 11251 140 227 233
21306 2519 11257 165 230 255
21306 2061 10793 78 113 137
21306 2293 11030 165 230 255
20847 2519 11258 171 243 250
20847 2291 11030 171 243 250
20847 2061 10793 65 85 100
24056 3894 9252 202 194 183
24515 3894 9467 205 192 180
23598 3264 10114 176 175 167
24056 3436 9380 214 206 201
23440 3894 10114 175 172 164
22681 3894 9967 155 247 251
22827 3894 10114 155 247 251
22681 3748 10114 155 247 251
23476 3894 9655 174 175 171
23455 3436 9655 196 190 182
23426 3436 10114 176 175 167
23996 3894 9197 202 194 183
23598 4028 9197 184 179 169
23598 3894 8990 184 179 169
23563 3894 9197 184 179 169
24515 3436 9213 203 193 176
23598 3436 8987 210 201 195
23926 3436 9197 214 206 201
23225 3894 8738 192 186 177
23140 3937 8738 192 186 177
23129 3894 8738 192 186 177
23140 3894 8748 192 186 177
23140 3894 8693 192 186 177
23526 3436 9197 210 201 195
23302 3436 8738 210 198 189
23140 3436 8788 210 198 189
23090 3436 8738 210 198 189
23140 3386 8738 210 198 189
23140 3436 8456 222 208 199
23598 2977 9813 214 203 194
23912 2977 10114 212 203 198
24515 2933 9655 209 198 190
24515 2977 9611 209 198 190
24056 2977 9382 212 198 187
24056 2913 9655 216 206 197
24515 2519 10008 215 199 186
24515 2414 10114 215 199 186
24056 2384 10114 219 207 196
23922 2519 10114 219 207 196
24056 2519 9979 219 207 196
23598 2519 9814 224 211 202
23756 2519 9655 224 211 202
23598 2519 9497 224 211 202
23598 2360 9655 224 211 202
23439 2519 9655 224 211 202
23440 2977 9655 214 203 194
23904 2977 9197 212 198 187
23598 2977 9113 221 208 199
23598 2894 9197 221 208 199
23514 2977 9197 221 208 199
22223 3749 10114 254 253 253
22223 3894 9968 254 253 253
21764 3894 9967 247 255 254
21764 3748 10114 247 255 254
21764 3894 9260 113 228 246
21406 3894 9655 255 255 254
21438 3436 9655 217 247 249
21475 3436 10114 162 179 181
21764 3894 9133 113 228 246
21828 3894 9197 113 228 246
21764 3831 9197 113 228 246
20847 3894 8943 254 255 253
21306 3894 9155 221 246 243
21306 3436 9118 255 253 254
21385 3436 9197 255 253 254
20847 3574 8738 192 247 248
20862 3436 8738 192 247 248
20847 3436 8637 192 247 248
21509 2977 10114 77 87 93
21764 2061 9842 238 220 204
21505 2061 10114 106 96 90
22223 2061 9348 239 223 213
21951 2061 9655 238 220 204
21764 2248 9655 238 220 204
21439 2977 9655 225 250 254
21464 2519 9655 81 116 146
21494 2519 10114 222 250 254
21764 2625 8738 234 222 210
22374 2061 9197 239 223 213
22223 2212 9197 239 223 213
22223 2061 8800 245 227 215
21764 2519 8844 234 222 210
21870 2519 8738 234 222 210
21764 2215 9197 240 225 212
21764 2114 8738 247 231 220
21764 2061 8771 247 231 220
21764 2519 8498 243 227 210
21441 2977 9197 184 249 255
21306 3033 8738 56 55 60
21361 2977 8738 56 55 60
21306 2977 8683 56 55 60
20847 2977 8371 231 217 200
21431 2519 9197 206 196 186
21306 2061 8768 245 229 213
21306 2111 8738 245 229 213
20847 2061 8749 245 230 214
20847 2078 8738 245 230 214
21306 2519 8493 242 228 212
20847 2519 8484 241 227 211
24056 1839 10572 225 209 201
24515 1851 11030 219 206 197
22681 1602 10335 237 221 206
23140 1144 10768 243 222 205
23140 1340 10572 243 222 205
23140 1144 10376 243 222 205
23335 1144 10572 243 222 205
22681 1144 10274 245 227 217
22944 1144 10572 243 222 205
23140 906 11030 243 225 213
23140 685 11251 243 225 213
23360 685 11030 243 225 213
23140 685 10810 243 225 213
22681 908 11030 246 229 218
22681 685 11253 246 229 218
22681 685 10808 246 229 218
23140 948 10572 243 222 205
23140 464 11030 243 225 213
22681 463 11030 246 229 218
22223 1602 10335 237 223 208
21764 1602 10331 240 225 211
21532 1602 10572 231 219 203
21764 1144 10770 243 226 209
22223 1144 10770 244 227 211
22223 1342 10572 244 227 211
22420 1144 10572 244 227 211
21764 1342 10572 243 226 209
20847 1602 10800 233 220 205
21306 1602 10799 231 219 203
20620 1602 10572 233 220 205
21306 1144 10769 242 228 210
20847 1144 10773 243 228 212
22223 910 11030 245 231 213
22223 685 11255 245 231 213
21764 912 11030 246 230 210
21764 685 11258 246 230 210
22223 685 10381 249 232 214
22414 685 10572 249 232 214
21764 685 10371 250 229 212
22223 460 11030 245 231 213
21764 458 11030 246 230 210
21533 227 11030 248 231 213
21764 484 10572 250 229 212
22223 494 10572 249 232 214
21306 910 11030 246 231 213
21306 685 11255 246 231 213
20847 912 11030 246 230 214
20847 685 11257 246 230 214
20847 685 10366 249 234 218
21306 685 10371 248 232 215
21306 227 11258 248 231 213
21306 0 11030 248 231 213
21078 227 11030 248 231 213
21306 227 10803 248 231 213
20616 227 11030 247 230 214
20847 458 11030 246 230 214
21306 484 10572 248 232 215
20847 480 10572 249 234 218
22902 1602 10114 237 221 206
22681 1823 10114 237 221 206
22792 1602 9655 242 224 208
22681 1602 9544 242 224 208
22681 1713 9655 242 224 208
22841 1144 10114 245 227 217
22681 1144 9953 245 227 217
22681 1491 9655 242 224 208
22681 983 10114 245 227 217
21764 1820 10114 240 225 211
22223 1823 10114 237 223 208
