ply
format ascii 1.0
element vertex 1805
property float x
property float y
property float z
property uchar red
property uchar green
property uchar blue
end_header
10909 27271 20669 7 7 1
10966 27294 20669 7 7 1
10765 27210 20669 11 7 1
10909 27214 20526 7 7 1
10793 27151 20526 12 7 1
10765 27151 20554 13 7 2
10622 27272 20957 14 5 0
10654 27294 20957 13 6 1
10508 27151 20957 32 14 9
10622 27196 20813 13 3 0
10572 27151 20813 22 8 4
10661 27151 20669 13 5 0
10622 27151 20730 13 3 0
10260 27007 21387 59 41 33
10334 27108 21387 58 41 32
10334 27062 21244 66 46 35
10294 27007 21244 68 45 36
10339 27007 21100 71 46 36
10334 27007 21116 71 47 37
10334 26997 21100 71 46 37
10254 26864 21100 69 45 36
10334 26864 20999 69 46 37
10765 27131 20526 13 7 2
10478 27113 20957 40 21 14
10403 27007 20957 61 39 29
10478 27007 20816 56 33 24
10479 27007 20813 56 33 24
10478 27000 20813 57 34 25
10622 27099 20669 19 6 1
10570 27007 20669 40 21 13
10657 27007 20526 29 12 6
10622 27007 20589 31 12 6
10362 26864 20957 68 45 36
10447 26864 20813 69 45 35
10478 26864 20774 65 41 32
10338 26720 20957 62 40 34
10334 26720 20961 61 39 34
10478 26720 20772 59 34 26
10446 26720 20813 62 37 29
10538 26864 20669 51 27 20
10628 26864 20526 51 29 21
10622 26801 20526 60 37 28
10622 26864 20538 51 29 21
10532 26720 20669 60 37 28
10622 26720 20506 71 47 37
10610 26720 20526 70 46 36
10047 27438 22461 28 19 11
10191 27467 22392 30 20 12
10191 27438 22321 31 21 13
10116 27438 22392 30 20 12
10047 27407 22392 31 20 12
10191 27405 22248 32 23 14
9760 27294 22468 37 23 15
9904 27343 22392 34 22 14
9904 27294 22303 35 23 15
9818 27294 22392 36 23 15
9760 27151 22315 33 20 13
9760 27211 22392 35 21 13
10047 27294 22187 37 24 16
10047 27336 22248 35 23 15
10191 27332 22105 37 24 15
10191 27294 22040 38 25 16
10131 27294 22105 37 24 16
10047 27179 22105 35 24 16
10015 27151 22105 35 24 15
10047 27151 22084 35 25 16
9968 27294 22248 35 24 16
9904 27226 22248 34 23 15
9904 27151 22184 33 22 15
9815 27151 22248 33 21 13
9719 27151 22392 35 21 14
10120 27151 21961 41 28 20
10191 27239 21961 41 28 18
10191 27158 21818 47 32 23
10191 27151 21805 48 33 24
10185 27151 21818 47 32 23
9904 27007 22157 35 21 14
9760 27007 22260 32 19 12
9774 27007 22248 32 19 12
9760 26978 22248 33 19 12
9904 26960 22105 36 22 15
9943 27007 22105 37 22 15
9760 26864 22181 37 22 15
9801 26864 22105 38 23 16
9760 26839 22105 40 24 16
9617 27007 22516 43 28 21
9652 27007 22392 36 22 14
9617 26947 22392 36 23 15
9473 26864 22435 42 28 21
9482 26864 22392 39 26 19
9473 26862 22392 39 26 19
9330 26815 22392 38 24 16
9633 26864 22248 37 21 15
9617 26861 22248 37 21 16
9617 26864 22262 36 21 16
9473 26806 22248 38 22 16
9617 26774 22105 40 25 18
9473 26720 22150 41 27 18
9617 26720 22044 44 28 20
9527 26720 22105 42 28 19
9473 26698 22105 43 29 20
9330 26720 22212 36 20 13
9330 26748 22248 36 20 13
9263 26720 22248 36 20 13
9330 26660 22105 41 25 18
10047 27018 21961 42 28 19
10047 27007 21948 43 29 20
10040 27007 21961 42 28 19
10098 27007 21818 49 32 23
10047 26949 21818 48 30 21
10191 27053 21674 54 36 26
10161 27007 21674 54 35 26
10191 27007 21599 56 38 28
10191 26973 21531 57 39 30
10217 27007 21531 55 38 29
9907 26864 21961 42 26 18
9904 26864 21968 41 25 17
9904 26861 21961 42 26 18
9904 26783 21818 47 29 21
9968 26864 21818 47 29 21
9728 26720 21961 46 29 20
9760 26744 21961 45 28 19
9760 26720 21926 47 29 20
9760 26645 21818 52 33 25
9835 26720 21818 50 30 23
10053 26864 21674 55 35 26
10047 26856 21674 55 35 26
10047 26864 21686 54 34 25
10108 26864 21531 59 38 29
10047 26789 21531 58 38 29
9992 26720 21531 57 38 29
9904 26720 21709 52 32 24
9921 26720 21674 53 33 25
9904 26690 21674 53 33 25
9617 26664 21961 49 31 22
9186 26773 22392 39 24 16
9186 26720 22298 37 21 15
9043 26739 22392 38 22 14
9043 26720 22366 36 20 12
8899 26720 22412 40 21 13
8755 26720 22432 44 24 16
8899 26709 22392 39 20 12
8956 26720 22392 38 21 13
8755 26691 22392 42 22 15
9043 26651 22248 34 17 10
9186 26693 22248 37 20 14
8899 26625 22248 35 16 10
8468 26720 22511 56 35 26
8612 26720 22467 51 31 23
8612 26655 22392 47 26 19
10191 26904 21387 64 44 34
10191 26864 21271 67 45 35
10161 26864 21387 64 43 34
10051 26720 21387 62 42 33
10047 26713 21387 61 41 32
10047 26720 21396 61 41 32
10191 26852 21244 67 44 34
10197 26864 21244 68 45 35
10108 26720 21244 61 39 33
10191 26732 21100 55 31 28
10184 26720 21100 54 30 28
10191 26720 21093 54 30 28
10191 26686 21100 52 29 26
10266 26433 21100 68 50 41
10251 26289 21100 71 53 47
10354 26577 20957 73 51 41
10334 26577 20987 71 50 41
10435 26577 20813 66 44 35
10478 26577 20743 70 47 37
10334 26433 20990 72 53 45
10349 26433 20957 72 52 45
10334 26374 20957 72 52 44
10396 26433 20813 77 52 45
10578 26577 20526 84 57 48
10507 26577 20669 76 51 42
10541 26433 20526 91 62 53
10478 26433 20677 83 59 50
10481 26433 20669 84 60 51
10478 26418 20669 84 59 50
10304 26289 20957 73 51 43
10342 26289 20813 77 55 46
10334 26289 20850 76 53 45
10334 26271 20813 77 55 46
10334 26146 20754 83 55 48
10276 26146 20813 80 55 48
10519 26146 20526 99 66 59
10526 26289 20526 96 62 55
10478 26289 20616 91 58 50
10432 26289 20669 86 57 49
10478 26146 20594 97 63 56
10411 26146 20669 88 57 50
10502 26002 20526 94 64 56
10334 26002 20693 82 52 46
10356 26002 20669 84 53 46
10478 26002 20563 94 62 54
10334 25905 20669 81 52 46
10334 25859 20661 81 53 46
10323 25859 20669 80 52 45
10478 25859 20526 91 63 57
10478 25859 20526 91 63 56
10478 25859 20526 90 62 56
10334 25715 20608 82 52 44
10264 25715 20669 80 51 44
10398 25715 20526 83 59 50
10334 25618 20526 79 57 48
10334 25572 20490 82 60 51
10306 25572 20526 80 58 49
9760 26577 21745 52 33 27
9825 26577 21674 52 33 27
9904 26577 21546 55 37 28
9912 26577 21531 55 38 29
9904 26543 21531 51 34 26
9771 26433 21674 50 33 25
9760 26433 21683 51 33 26
9760 26413 21674 49 33 25
9874 26433 21531 42 24 19
9897 26289 21531 45 33 29
9904 26289 21525 46 34 30
9760 26289 21615 40 29 25
9760 26221 21531 41 29 25
9473 26622 21961 53 33 25
9473 26577 21896 55 35 27
9617 26577 21853 55 35 26
9670 26577 21818 54 35 26
9617 26518 21818 53 33 25
9617 26433 21764 50 31 25
9473 26479 21818 51 32 25
9473 26433 21788 50 31 25
9290 26577 21961 49 29 22
9330 26584 21961 50 31 23
9330 26577 21947 51 32 24
9330 26463 21818 52 33 24
9330 26433 21795 51 33 24
9617 26289 21668 44 31 24
9617 26298 21674 45 30 24
9473 26289 21697 40 29 22
9473 26266 21674 36 25 19
9589 26289 21674 43 30 23
9617 26181 21531 38 27 24
9513 26146 21531 31 21 18
9473 26146 21547 28 18 15
9473 26134 21531 30 19 16
9330 26289 21713 47 30 24
9330 26242 21674 37 25 19
9330 26146 21589 26 16 13
9330 26100 21531 30 18 15
9186 26622 22105 39 21 15
9043 26577 22089 35 18 11
9043 26584 22105 34 17 10
9006 26577 22105 35 17 10
8899 26577 22155 34 16 9
8755 26599 22248 38 19 12
8755 26577 22206 37 18 11
8755 26531 22105 42 21 14
8899 26557 22105 36 18 11
8612 26577 22290 46 23 16
8468 26601 22392 57 36 27
8468 26577 22362 57 36 27
8325 26577 22426 54 35 26
8325 26552 22392 55 35 27
8401 26577 22392 56 35 27
8612 26551 22248 47 25 17
8691 26577 22248 41 21 13
8468 26509 22248 55 34 26
8612 26484 22105 52 29 21
8468 26440 22105 59 38 30
8468 26433 22083 59 38 30
8325 26481 22248 58 36 28
8412 26433 22105 60 38 30
8325 26433 22133 61 39 31
8325 26421 22105 61 39 31
9186 26555 21961 46 25 18
9186 26577 22006 44 23 17
9043 26516 21961 44 25 18
9186 26446 21818 53 32 22
9186 26433 21805 53 32 22
9043 26439 21818 56 33 25
9043 26433 21810 56 33 25
9010 26433 21818 57 34 26
8899 26493 21961 47 27 19
8755 26470 21961 52 30 21
8755 26433 21889 57 35 26
8899 26407 21818 57 36 27
8899 26433 21848 57 36 27
8755 26379 21818 59 37 28
9186 26241 21674 46 29 21
9186 26289 21709 57 35 26
9043 26257 21674 51 33 24
9043 26289 21696 55 35 26
9186 26146 21601 27 18 14
9043 26146 21602 36 22 16
8899 26289 21703 54 34 25
8899 26249 21674 52 31 23
8755 26289 21713 58 35 26
8755 26228 21674 56 33 23
8899 26146 21602 45 26 17
8755 26146 21629 53 31 21
8612 26441 21961 56 33 25
8581 26433 21961 57 35 26
8612 26433 21938 57 34 25
8468 26398 21961 64 41 33
8468 26353 21818 63 40 30
8612 26355 21818 62 39 29
8325 26359 21961 61 38 31
8325 26289 21769 62 39 31
8325 26313 21818 61 40 31
8243 26289 21818 60 39 32
8468 26289 21755 63 39 30
8612 26289 21742 62 39 29
8612 26146 21656 57 36 27
8612 26185 21674 59 36 27
8473 26146 21674 58 36 28
8468 26145 21674 58 35 28
8468 26146 21675 59 36 29
8325 26146 21712 61 39 30
9043 26065 21531 37 22 17
9186 26084 21531 32 18 14
8899 26043 21531 44 27 20
8772 26002 21531 48 26 19
8755 25996 21531 49 26 19
8755 26002 21534 48 26 18
8612 26002 21571 50 29 21
8468 26002 21596 50 29 21
8612 25859 21526 50 27 20
8612 25875 21531 50 27 20
8595 25859 21531 50 27 20
8468 25859 21562 52 30 23
8325 26002 21609 54 31 24
8325 26108 21674 59 37 28
8325 25859 21570 52 30 23
8468 25715 21526 55 36 27
8468 25735 21531 54 35 26
8325 25715 21531 57 34 25
8325 25716 21531 56 33 24
10047 26577 21250 39 19 15
10047 26433 21313 43 23 20
9974 26577 21387 48 27 22
9976 26433 21387 39 21 16
9904 26433 21482 40 22 17
10052 26577 21244 39 19 15
10191 26577 21124 47 25 20
10219 26577 21100 50 29 23
10191 26433 21187 59 40 33
10124 26433 21244 51 31 27
10049 26289 21387 51 34 30
10047 26289 21389 51 34 29
10047 26292 21387 50 33 29
10047 26287 21387 51 34 30
10047 26146 21289 67 50 44
9904 26165 21387 55 37 32
9858 26146 21387 53 36 31
9760 26123 21387 50 34 29
9760 26146 21425 47 32 27
9904 26146 21368 57 38 33
10191 26289 21236 66 50 42
10184 26289 21244 65 49 41
10105 26146 21244 70 53 47
10191 26146 21062 67 48 41
10191 26172 21100 66 48 42
10169 26146 21100 67 48 42
9617 26146 21482 40 28 24
10224 26146 20957 73 51 44
10047 26109 21244 69 51 45
9994 26002 21100 66 47 44
10047 26036 21100 66 47 45
9904 26051 21244 67 46 40
9904 26002 21174 69 48 42
9760 26002 21241 65 45 40
9760 26004 21244 64 44 39
9755 26002 21244 64 44 39
9904 25955 21100 68 48 43
9737 25859 21100 68 44 39
9760 25871 21100 68 45 40
9760 25859 21087 69 45 40
9617 26075 21387 51 34 28
9473 26031 21387 47 31 26
9473 26002 21349 51 33 27
9617 26002 21299 60 40 36
9380 26002 21387 45 27 21
9330 25986 21387 43 25 19
9330 26002 21405 41 23 18
9330 25859 21257 58 39 33
9617 25859 21153 65 44 37
9617 25951 21244 63 42 38
9473 25859 21207 61 42 37
9473 25901 21244 58 39 34
9368 25859 21244 59 40 35
9617 25785 21100 66 44 37
9617 25715 21045 67 43 36
9473 25715 21115 64 41 36
9510 25715 21100 65 42 36
9473 25686 21100 66 42 36
9330 25839 21244 59 40 34
9330 25715 21169 63 41 35
10191 26107 20957 72 51 43
10051 26002 20957 70 49 44
10047 26002 20971 69 48 44
10047 25997 20957 70 49 44
10191 26002 20816 78 52 45
10195 26002 20813 79 52 46
10191 25989 20813 78 52 45
10047 25859 20867 75 51 45
10191 25859 20785 76 50 44
10137 25859 20813 76 50 44
9907 25859 20957 70 47 42
9904 25859 20959 69 47 42
10191 25715 20745 77 50 45
10064 25715 20813 75 50 44
10047 25715 20823 74 50 43
10047 25690 20813 75 51 44
9904 25854 20957 70 46 41
9904 25715 20900 71 47 41
9760 25715 20962 68 44 40
9760 25704 20957 68 44 39
9773 25715 20957 68 44 40
9186 26002 21438 37 18 13
9043 26002 21471 40 24 18
9186 25953 21387 42 23 18
9043 25903 21387 46 29 23
8965 25859 21387 49 32 27
9043 25859 21355 49 32 26
9186 25859 21300 55 36 31
8899 26002 21502 45 27 22
8899 25859 21414 49 31 27
8755 25859 21470 52 34 25
9043 25715 21287 56 35 31
8899 25793 21387 51 32 28
8836 25715 21387 52 32 28
8755 25715 21424 51 32 27
8899 25715 21357 52 32 28
9186 25751 21244 60 39 34
9186 25715 21225 61 40 35
9144 25715 21244 59 38 33
8612 25715 21484 52 32 24
9473 25572 21035 69 43 38
9330 25572 21104 65 43 37
9340 25572 21100 66 43 37
9330 25562 21100 66 43 37
9330 25428 21035 68 43 37
10047 25572 20783 75 52 45
10047 25428 20736 74 51 45
9760 25572 20906 70 44 39
9904 25572 20854 72 49 43
9983 25572 20813 74 51 45
9904 25456 20813 71 48 45
9904 25428 20804 71 48 46
9882 25428 20813 71 48 45
9760 25428 20862 71 48 42
10191 25572 20675 78 52 45
10191 25564 20669 78 52 45
10195 25572 20669 78 52 45
10114 25428 20669 78 52 47
10191 25428 20579 83 55 49
10223 25428 20526 84 57 51
10191 25375 20526 86 57 50
9904 25285 20752 73 48 45
9760 25319 20813 74 50 45
9760 25285 20801 75 50 46
9732 25285 20813 75 50 46
9760 25141 20771 76 50 43
10047 25319 20669 80 54 48
10047 25285 20646 82 54 48
10017 25285 20669 80 53 48
10131 25285 20526 85 56 49
10047 25148 20526 86 59 50
10047 25141 20519 87 60 51
10042 25141 20526 86 59 50
9904 25141 20693 78 52 46
9924 25141 20669 79 52 46
9904 25116 20669 78 51 46
9654 25572 20957 69 45 38
9617 25572 20972 69 45 38
9617 25536 20957 69 45 38
9617 25428 20912 71 45 40
9507 25428 20957 72 45 39
9473 25428 20970 72 45 39
9473 25389 20957 72 45 39
9473 25285 20919 72 45 42
9617 25285 20863 75 48 42
9473 25141 20884 70 43 39
9617 25141 20825 73 47 43
9654 25141 20813 74 48 44
9617 25105 20813 73 47 42
9330 25285 20975 72 45 39
9378 25285 20957 72 45 40
9330 25204 20957 69 42 37
9295 25141 20957 68 41 37
9330 25141 20941 67 41 37
9760 24998 20694 76 47 42
9791 24998 20669 78 47 43
9760 24971 20669 77 47 43
9904 24998 20551 85 54 47
9904 24978 20526 86 54 47
9922 24998 20526 86 55 48
9760 24854 20533 82 50 43
9767 24854 20526 83 51 43
9760 24847 20526 82 50 42
9617 24998 20773 71 45 39
9531 24998 20813 68 44 37
9473 24998 20838 66 42 35
9473 24854 20753 76 43 38
9473 24952 20813 70 43 36
9239 24998 20957 64 34 31
9330 24998 20905 65 38 33
9330 24854 20842 74 40 36
9379 24854 20813 75 43 37
9617 24865 20669 72 39 36
9603 24854 20669 73 39 36
9617 24854 20660 73 39 36
9330 24808 20813 76 42 36
9330 24711 20748 77 40 34
9257 24711 20813 78 41 34
9473 24745 20669 70 34 30
9473 24711 20639 70 34 30
9617 24711 20519 74 45 38
9617 24718 20526 74 45 38
9608 24711 20526 74 44 37
9438 24711 20669 70 33 29
9330 24590 20669 61 26 24
8755 25572 21379 53 34 28
8755 25598 21387 53 33 28
8735 25572 21387 54 34 29
8899 25572 21308 56 36 30
8899 25428 21256 63 41 36
8755 25428 21328 53 32 25
9186 25572 21169 63 42 35
9043 25572 21243 59 40 34
9043 25574 21244 58 39 33
9041 25572 21244 58 39 33
9043 25428 21179 62 42 35
9186 25428 21105 66 43 37
9197 25428 21100 66 44 38
9186 25417 21100 66 44 38
8899 25399 21244 63 40 36
8923 25428 21244 63 42 36
8755 25285 21275 62 34 34
9186 25285 21042 71 44 39
9043 25285 21115 64 40 37
9073 25285 21100 66 41 38
9043 25229 21100 65 38 36
9186 25141 21002 69 39 36
9002 25141 21100 65 33 32
9043 25141 21077 66 34 33
8899 25285 21191 62 35 34
8811 25285 21244 62 34 34
8899 25141 21159 65 32 31
8755 25156 21244 68 34 33
8755 25141 21240 68 34 32
8749 25141 21244 69 35 32
8468 25572 21476 64 42 33
8612 25572 21435 59 39 32
8612 25428 21390 64 40 34
8612 25421 21387 63 39 33
8618 25428 21387 63 39 33
8468 25428 21423 69 44 38
8325 25572 21482 65 46 38
8325 25428 21432 69 47 40
8468 25285 21380 69 37 35
8468 25310 21387 70 39 35
8612 25285 21339 63 36 32
8468 25141 21351 72 41 36
8612 25141 21310 69 35 32
8346 25285 21387 77 46 43
8325 25285 21388 78 47 44
8325 25278 21387 79 48 44
8315 25285 21387 78 48 45
8325 25141 21363 80 48 42
8755 24854 21265 97 53 48
9043 24998 21069 65 29 28
8990 24998 21100 66 29 28
8994 24854 21100 68 28 26
9043 24854 21061 66 26 24
8899 24998 21153 67 30 27
8750 24998 21244 74 36 34
8755 24998 21241 73 35 32
8755 24981 21244 75 36 34
8899 24854 21171 75 32 30
8791 24854 21244 92 47 43
8755 24711 21286 113 67 60
9043 24711 21023 78 36 32
8968 24711 21100 82 40 35
8899 24711 21168 85 44 38
8811 24711 21244 103 60 54
8468 24998 21354 85 53 48
8612 24998 21310 108 68 63
8468 24854 21381 101 62 59
8612 24854 21342 113 72 65
8325 24998 21367 88 53 50
8325 24851 21387 98 59 57
8325 24854 21387 97 59 57
8468 24824 21387 105 65 62
8468 24711 21407 121 78 73
8550 24711 21387 124 81 75
8612 24711 21369 126 83 75
8258 24711 21387 111 72 71
8325 24711 21406 118 77 74
9186 24998 20984 64 31 30
9186 24885 20957 68 32 31
9186 24854 20948 70 32 32
9176 24854 20957 69 31 31
9107 24711 20957 78 38 33
9186 24711 20874 77 39 32
9043 24589 20957 88 48 43
9186 24612 20813 77 38 33
12043 28586 20239 22 20 11
12048 28586 20382 27 24 15
12037 28443 20382 24 23 13
12026 28443 20239 17 16 7
12020 28586 20095 19 18 9
12007 28443 20095 17 17 8
12008 28299 20382 23 24 15
12007 28299 20239 20 20 12
11993 28299 20095 18 17 10
11990 28586 19952 19 17 9
11958 28586 19808 21 17 8
11980 28443 19952 18 17 9
11942 28443 19808 20 18 10
11913 28443 19737 21 19 11
11913 28587 19665 24 22 12
11913 28586 19665 23 21 12
11845 28586 19521 21 19 11
11814 28443 19521 19 18 10
11886 28443 19665 22 21 13
11965 28299 19952 16 15 8
11926 28299 19808 17 16 7
11913 28299 19782 18 16 7
11913 28256 19808 17 16 8
11860 28299 19665 22 18 11
11785 28299 19521 20 19 12
11770 28247 19521 19 19 12
11770 28299 19495 19 18 11
11913 28043 20382 13 14 7
11966 28156 20382 19 19 12
11977 28156 20239 20 21 13
11897 28012 20382 13 14 7
11913 28012 20259 14 15 8
11913 28008 20239 14 16 9
11916 28012 20239 14 16 9
11963 28156 20095 22 21 14
11913 28012 20197 15 16 9
11913 28024 20095 19 19 10
11908 28012 20095 18 18 9
11831 27868 20239 13 15 9
11807 27868 20382 11 12 7
11818 27868 20095 14 15 10
11770 27814 20382 10 13 7
11770 27799 20239 13 15 10
11690 27725 20382 10 12 6
11626 27669 20382 9 10 5
11693 27725 20239 11 13 9
11770 27801 20095 18 20 15
11707 27725 20095 20 21 16
11936 28156 19952 20 20 12
11913 28109 19952 20 20 12
11913 28156 19893 19 19 12
11884 28156 19808 19 19 12
11824 28012 19808 20 19 12
11871 28012 19952 18 19 12
11822 28156 19665 19 19 11
11795 27868 19952 15 16 10
11741 28156 19521 18 19 13
11770 28156 19570 18 19 12
11770 28006 19665 23 21 13
11773 28012 19665 23 21 13
11770 28012 19660 22 20 12
11691 28012 19521 20 18 11
11770 27868 19875 17 18 11
11770 27829 19952 24 25 19
11770 27903 19808 19 19 12
11751 27868 19808 19 20 13
11697 27725 19952 33 34 29
11626 27669 19808 32 32 27
11666 27725 19808 40 40 34
11699 27868 19665 28 28 22
11626 27881 19521 22 18 12
11619 27868 19521 22 18 12
11626 27868 19532 23 19 13
11626 27725 19681 27 27 21
11621 27725 19665 27 27 21
11626 27732 19665 27 27 21
11534 27725 19521 20 20 14
11770 28622 19378 14 14 5
11761 28586 19378 15 15 6
11770 28586 19395 15 15 6
11685 28586 19234 13 12 5
11727 28443 19378 16 16 8
11770 28443 19450 18 17 9
11646 28443 19234 16 13 9
11626 28611 19091 22 17 10
11626 28586 19108 22 17 11
11617 28586 19091 24 18 12
11542 28586 18947 28 19 15
11557 28443 19091 23 17 12
11626 28443 19199 18 13 9
11485 28443 18947 32 23 18
11483 28436 18947 33 24 19
11695 28299 19378 17 16 9
11626 28376 19234 16 13 9
11599 28299 19234 16 14 9
11626 28299 19273 16 15 10
11501 28299 19091 24 19 15
11408 28299 18947 39 26 22
11483 28299 19054 28 20 17
11483 28257 19091 26 19 15
11339 28181 18947 40 27 22
11484 28586 18803 35 21 15
11483 28586 18801 35 21 15
11483 28584 18803 35 21 15
11426 28443 18803 41 25 19
11483 28443 18939 33 23 18
11361 28586 18516 40 23 17
11427 28586 18660 39 21 15
11339 28443 18599 45 25 19
11368 28443 18660 44 24 19
11294 28443 18516 45 25 19
11339 28537 18516 41 23 17
11355 28299 18803 47 31 23
11339 28299 18760 47 30 23
11339 28273 18803 47 31 23
11339 28382 18660 45 25 21
11291 28299 18660 48 27 23
11640 28156 19378 15 15 9
11626 28156 19357 15 16 10
11626 28115 19378 15 15 9
11534 28156 19234 19 15 12
11589 28012 19378 17 16 8
11626 28012 19427 18 16 9
11484 28012 19234 17 13 8
11483 28012 19232 17 13 8
11483 28008 19234 17 13 8
11483 28156 19157 25 18 14
11423 28156 19091 29 21 16
11339 28156 18968 38 26 21
11325 28156 18947 40 27 22
11339 27977 19091 27 21 16
11354 28012 19091 28 22 17
11339 28012 19063 30 23 17
11274 28012 18947 42 30 24
11521 27868 19378 19 16 12
11483 27792 19378 21 18 12
11483 27868 19326 23 18 13
11410 27868 19234 22 17 11
11483 27725 19433 19 18 11
11450 27725 19378 21 18 11
11339 27725 19212 16 13 7
11353 27725 19234 17 14 8
11339 27696 19234 17 14 8
11339 27868 19145 21 17 12
11300 27868 19091 23 17 13
11196 28299 18454 47 26 21
11215 28299 18516 46 25 22
11196 28256 18516 47 26 23
11219 27868 18947 40 29 24
11196 27781 18947 36 25 20
11257 27725 19091 21 13 8
11196 27725 18977 29 19 14
11180 27725 18947 33 22 17
11196 28046 18803 57 39 33
11254 28156 18803 52 35 28
11177 28012 18803 58 39 33
11196 28012 18827 55 37 32
11196 28156 18661 53 35 28
11195 28156 18660 53 35 28
11196 28156 18660 52 34 27
11148 28156 18516 49 29 24
11099 28012 18516 55 33 27
11139 28012 18660 58 38 30
11141 27868 18803 55 35 30
11196 27868 18899 43 30 25
11116 27725 18803 54 35 29
11098 27868 18660 60 34 28
11064 27868 18516 50 26 18
11052 27868 18477 49 25 18
11052 27783 18516 57 32 24
11076 27725 18660 64 40 32
11043 27725 18516 62 36 28
11052 27725 18549 62 37 29
11537 27581 20382 9 10 5
11626 27646 20239 9 10 4
11571 27581 20239 9 10 4
11483 27515 20382 9 10 5
11416 27438 20382 7 7 2
11476 27438 20239 10 9 5
11483 27448 20239 10 10 5
11595 27581 20095 17 16 11
11626 27626 20095 17 16 12
11483 27438 20215 11 10 6
11508 27438 20095 18 18 12
11483 27399 20095 13 13 7
11339 27364 20382 6 5 0
11339 27294 20269 7 6 1
11358 27294 20239 8 7 2
11339 27280 20239 8 7 2
11339 27237 20095 9 8 3
11396 27294 20095 10 9 4
11626 27624 19952 26 28 22
11600 27581 19952 27 28 22
11571 27581 19808 33 33 27
11513 27438 19952 20 19 13
11491 27438 19808 14 14 9
11483 27424 19808 12 12 6
11483 27438 19783 12 12 6
11526 27581 19665 25 25 20
11483 27629 19521 13 13 9
11456 27581 19521 13 12 9
11483 27581 19578 14 14 10
11442 27438 19665 11 11 5
11483 27512 19665 14 14 9
11390 27438 19521 16 11 6
11410 27294 19952 13 10 5
11483 27389 19952 13 11 6
11391 27294 19808 13 11 5
11339 27210 19952 12 9 2
11339 27226 19808 14 10 4
11364 27294 19665 16 12 6
11339 27294 19576 16 12 5
11339 27327 19521 15 11 5
11320 27294 19521 15 11 4
11339 27257 19665 17 12 5
11196 27294 20420 7 7 2
11196 27277 20382 7 7 2
11227 27294 20382 7 6 1
11052 27215 20382 8 8 2
11196 27203 20239 9 8 3
11052 27156 20239 8 8 2
11040 27151 20239 9 7 1
11052 27151 20225 9 8 2
10909 27157 20382 7 7 1
10899 27151 20382 8 6 0
10909 27151 20369 8 6 1
11196 27152 20095 9 6 1
11196 27151 20092 10 5 1
11192 27151 20095 9 6 1
11260 27151 19808 13 7 2
11261 27151 19952 10 6 1
11241 27151 19665 16 7 2
11196 27141 19521 18 12 5
11203 27151 19521 18 12 5
11196 27151 19494 19 12 5
10909 27088 20239 9 5 0
10765 27039 20382 22 11 5
10818 27007 20239 20 10 4
10765 27007 20333 26 14 7
10765 26888 20239 40 23 15
11052 27099 20095 9 6 1
10909 27022 20095 11 4 0
10909 27007 20064 12 3 0
10895 27007 20095 13 5 0
10758 26864 20239 44 25 17
10765 26864 20220 44 25 17
10814 26864 20095 37 19 13
10758 26720 20095 69 42 33
10765 26720 20067 69 42 33
10765 26740 20095 66 40 31
10742 27007 20382 28 15 7
10698 26864 20382 50 29 22
10672 26720 20382 68 43 34
10719 26720 20239 67 41 33
11196 27112 19952 11 5 1
11052 27044 19952 10 2 0
11196 27096 19808 15 7 3
11052 27007 19846 10 0 0
11052 26996 19808 11 0 0
11067 27007 19808 12 1 0
10989 27007 19952 10 1 0
10909 26949 19952 13 2 0
10909 26894 19808 17 0 0
11196 27104 19665 16 8 2
11052 26975 19665 17 1 0
11083 27007 19665 16 2 1
11052 26976 19521 22 4 2
11077 27007 19521 22 5 2
10852 26864 19952 30 12 9
10886 26864 19808 23 5 3
10909 26864 19737 18 0 0
10793 26720 19952 62 37 28
10830 26720 19808 51 25 20
10938 26864 19665 20 1 0
10909 26813 19665 22 0 0
10958 26864 19521 23 2 1
10870 26720 19665 39 11 9
10898 26720 19521 34 5 2
10909 26751 19521 29 2 0
11374 27581 19378 19 15 10
11339 27581 19323 20 17 10
11285 27581 19234 22 17 10
11339 27499 19378 20 16 9
11339 27438 19418 20 15 9
11314 27438 19378 21 16 10
11236 27438 19234 19 13 8
11208 27581 19091 19 11 6
11196 27541 19091 19 11 6
11142 27581 18947 32 19 14
11196 27581 19063 21 12 7
11156 27438 19091 19 12 5
11196 27438 19154 18 12 6
11101 27438 18947 28 16 11
11255 27294 19378 16 10 3
11196 27309 19234 15 10 4
11196 27294 19244 15 9 3
11190 27294 19234 15 9 3
11196 27202 19378 20 12 5
11160 27151 19378 21 10 5
11119 27151 19234 21 10 4
11124 27294 19091 22 11 5
11074 27294 18947 28 11 7
11082 27151 19091 26 13 7
11054 27151 18947 37 16 11
11052 27146 18947 37 16 11
11093 27581 18803 54 34 28
11052 27581 18692 62 42 36
11063 27438 18803 53 30 24
11052 27438 18758 56 34 28
11039 27581 18660 65 45 38
11052 27633 18660 65 44 36
11023 27438 18660 63 41 34
10993 27438 18516 65 43 34
11005 27581 18516 68 43 34
11052 27294 18855 39 18 13
11039 27294 18803 46 24 18
11052 27370 18803 50 27 22
11018 27151 18803 48 21 15
11052 27151 18940 37 16 11
11011 27294 18660 59 35 28
10987 27294 18516 60 35 28
10980 27151 18516 70 41 34
10996 27151 18660 61 32 25
11052 27024 19234 28 11 6
11052 26992 19378 24 10 6
11062 27007 19378 24 10 7
11042 27007 19234 29 11 6
11052 27007 19304 27 11 7
11052 27073 19091 30 13 8
11024 27007 19091 33 11 8
11003 27007 18947 43 18 12
10978 26864 19234 37 14 12
10970 26864 19378 24 4 2
10920 26720 19378 34 4 0
10909 26720 19448 33 3 0
10909 26677 19378 36 5 1
10942 26720 19234 33 7 3
10979 26864 19091 44 14 9
10975 26864 18947 50 20 14
10955 26720 19091 49 19 14
10961 26720 18947 54 20 14
10988 27007 18803 57 28 22
10974 27007 18660 69 39 32
10969 27007 18516 76 45 38
10969 26864 18803 62 31 25
10960 26720 18803 64 30 23
10961 26864 18516 81 49 40
10963 26864 18660 76 46 38
10957 26720 18516 84 51 42
10960 26720 18660 77 43 36
11339 28550 18373 43 23 16
11356 28586 18373 43 24 17
11365 28586 18229 54 32 26
11265 28443 18373 49 26 21
11286 28443 18229 56 32 27
11339 28539 18229 56 34 27
11403 28586 18086 43 22 16
11483 28628 17942 29 15 10
11428 28586 17942 34 14 10
11339 28457 18086 61 36 29
11332 28443 18086 61 36 29
11339 28443 18044 61 36 29
11353 28443 17942 57 33 27
11278 28299 18086 67 40 32
11305 28299 17942 71 47 37
11339 28398 17942 63 39 32
11483 28656 17799 30 17 10
11392 28586 17799 35 12 6
11339 28456 17799 39 10 3
11335 28443 17799 40 11 4
11339 28443 17831 44 15 8
11339 28586 17641 19 7 3
11351 28586 17655 20 7 3
11339 28559 17655 21 6 2
11287 28443 17655 33 6 3
11296 28299 17799 68 40 33
11283 28156 17942 77 46 38
11277 28156 17799 83 52 44
11269 28012 17799 94 60 53
11167 28299 18373 47 26 20
11196 28340 18373 47 26 20
11213 28299 18229 50 25 19
11196 28299 18289 48 24 18
11196 28266 18229 47 22 16
11196 28597 17512 13 7 3
11196 28586 17515 13 7 3
11192 28586 17512 13 7 3
11196 28443 17533 18 2 1
11175 28443 17512 17 1 0
11257 28299 17655 53 21 15
11181 28299 17512 27 1 0
11196 28299 17531 31 4 3
11052 28054 18373 52 29 25
11088 28156 18373 51 28 24
11116 28156 18229 45 19 14
11052 28036 18229 45 23 17
11052 28012 18401 53 30 25
11039 28012 18373 52 29 25
11052 28012 18213 44 22 16
11038 28012 18229 46 23 17
11196 28156 18120 50 19 15
11196 28097 18086 48 17 12
11214 28156 18086 55 23 19
11157 28012 18086 41 13 8
11245 28012 17942 79 45 38
11196 28012 18041 51 20 15
11012 27868 18373 43 23 17
10995 27868 18229 43 21 17
10997 27725 18373 49 28 23
10986 27725 18229 41 18 13
11071 27868 18086 40 14 11
11052 27868 18125 40 16 12
11196 27842 17942 64 30 25
11201 27868 17942 62 27 22
11196 27868 17950 59 25 21
11052 27725 18106 37 9 4
11062 27725 18086 37 9 4
11170 27725 17942 74 41 35
11245 28156 17655 78 48 40
11196 28156 17553 54 25 18
11166 28156 17512 44 14 7
11239 28012 17655 91 56 49
11196 28012 17554 69 35 30
11168 28012 17512 59 23 19
11246 27868 17799 93 56 49
11196 27725 17889 80 45 39
11227 27725 17799 81 42 35
11235 27868 17655 89 52 43
11196 27868 17567 83 46 40
11052 27868 17408 51 13 11
11160 27868 17512 77 39 33
11217 27725 17655 87 48 39
11196 27725 17613 85 46 38
11131 27725 17512 79 41 35
11052 27725 17431 59 22 17
11063 28586 17368 28 17 11
11112 28586 17224 18 12 8
11052 28534 17368 27 14 9
11052 28443 17393 23 7 4
11036 28443 17368 23 9 6
11052 28477 17224 21 8 6
11032 28443 17224 22 9 6
11052 28443 17156 15 8 5
11096 28586 16937 6 7 3
11108 28586 17081 9 10 5
11075 28443 17081 8 10 5
11084 28443 16937 6 8 4
11052 28299 17385 29 4 2
11030 28299 17368 30 6 4
10978 28299 17224 33 14 10
11009 28299 17081 10 6 2
11052 28390 17081 9 7 3
11037 28299 16937 7 7 2
11052 28329 16937 6 8 2
11088 28586 16794 4 7 2
11052 28586 16702 5 8 3
11014 28586 16650 5 8 3
11052 28443 16767 4 7 2
11060 28443 16794 5 6 2
10983 28443 16650 4 8 2
10954 28586 16507 3 5 0
10938 28443 16507 3 7 2
10909 28443 16423 3 7 3
11052 28409 16794 5 7 2
11001 28299 16794 5 6 1
10959 28299 16650 4 7 1
10909 28168 16650 4 5 1
10909 28299 16505 4 7 1
10909 28298 16507 3 7 2
10909 28299 16507 3 7 1
11052 28156 17393 41 10 5
11022 28156 17368 41 11 6
11013 28012 17368 45 13 10
11052 28012 17396 44 10 8
10909 28087 17224 37 11 8
10927 28156 17224 38 12 8
10909 28012 17258 39 12 9
10889 28012 17224 36 11 9
10970 28156 16937 7 4 0
10962 28156 17081 11 7 3
10900 28012 17081 18 10 7
10909 28029 17081 17 10 6
10909 28012 16993 11 8 3
10909 28012 16912 6 7 1
10913 28012 16937 6 7 0
10909 27999 16937 7 7 1
10909 27868 17286 46 17 12
10998 27868 17368 50 15 12
10861 27868 17224 43 16 10
10909 27725 17313 49 16 12
10972 27725 17368 55 18 14
10830 27725 17224 43 16 11
10839 27868 17081 18 9 5
10851 27868 16937 7 7 1
10781 27725 17081 19 7 2
10765 27655 17081 19 6 2
10783 27725 16937 9 5 0
10765 27666 16937 10 6 0
10909 28070 16794 5 6 1
10942 28156 16794 5 6 0
10903 28156 16650 5 5 1
10909 28156 16668 5 5 0
10846 28012 16650 5 5 0
10880 28012 16794 6 6 1
10867 28156 16507 3 7 2
10838 28012 16507 4 5 1
10814 27868 16794 6 6 1
10798 27868 16650 5 6 1
10765 27725 16811 7 7 1
10763 27725 16794 7 8 1
10765 27732 16794 6 8 1
10765 27769 16650 6 7 2
10752 27725 16650 6 8 3
10803 27868 16507 4 6 2
10765 27725 16564 5 7 3
10775 27725 16507 5 7 3
10765 27648 16507 5 7 2
10981 27581 18229 40 13 9
10986 27581 18373 56 30 23
10975 27438 18373 60 34 26
10983 27438 18229 47 16 10
11052 27627 18086 50 18 14
11052 27581 18080 58 24 21
11047 27581 18086 56 22 19
11145 27581 17942 83 46 39
11052 27438 18079 75 39 31
11047 27438 18086 74 38 30
11052 27395 18086 78 41 34
11133 27438 17942 89 50 41
10974 27294 18373 63 31 24
10992 27294 18229 60 26 20
10977 27151 18373 75 43 36
11000 27151 18229 80 43 37
11052 27294 18108 83 45 40
11062 27294 18086 86 48 43
11129 27294 17942 92 53 44
11067 27151 18086 84 46 39
11052 27151 18119 82 45 38
11118 27151 17942 99 57 49
11202 27581 17799 77 38 30
11196 27581 17818 77 38 30
11196 27538 17799 83 43 34
11196 27581 17727 91 51 42
11180 27438 17799 98 55 45
11190 27581 17655 105 64 54
11196 27610 17655 102 61 52
11103 27581 17512 84 42 34
11052 27581 17458 69 30 24
11154 27438 17655 114 73 63
11061 27438 17512 86 39 32
11052 27438 17502 84 37 31
11052 27413 17512 87 40 33
11152 27294 17799 106 66 56
11113 27151 17799 111 71 61
11052 27294 17573 94 50 42
11108 27294 17655 108 67 58
11054 27151 17655 103 59 47
11052 27151 17652 103 58 46
11052 27146 17655 103 58 46
11002 27294 17512 83 39 32
10909 27294 17434 70 29 25
10909 27151 17496 83 38 32
10925 27151 17512 85 40 33
10999 27007 18229 84 51 41
10971 27007 18373 81 48 39
11052 27007 18093 88 52 43
11054 27007 18086 89 52 44
11052 26995 18086 90 52 44
11085 27007 17942 102 63 54
11052 26895 17942 106 65 55
10964 26864 18373 87 53 44
10990 26864 18229 91 55 46
10969 26720 18229 81 46 38
10958 26720 18373 81 48 40
11041 26864 17942 107 65 55
11025 26864 18086 101 61 51
10974 26720 17942 91 53 45
10980 26720 18086 85 49 42
11052 26965 17799 117 75 65
11069 27007 17799 119 77 67
11052 27007 17768 117 74 64
10909 27116 17512 86 40 33
10982 27007 17655 100 54 44
10909 27007 17570 89 43 36
10765 27007 17424 79 36 30
10849 27007 17512 86 40 33
11006 26864 17799 110 68 58
10937 26720 17799 88 51 43
10909 26650 17799 69 35 28
10909 26720 17745 85 48 39
10916 26864 17655 99 55 46
10909 26864 17646 99 54 45
10909 26843 17655 97 53 44
10765 26864 17475 83 41 34
10792 26864 17512 85 43 35
10765 26773 17512 81 40 33
10765 26720 17534 79 39 32
10854 26720 17655 80 41 32
10749 26720 17512 78 38 31
10941 27581 17368 60 21 16
10909 27581 17344 58 20 16
10796 27581 17224 41 11 8
10909 27512 17368 66 25 20
10909 27438 17394 70 28 22
10873 27438 17368 69 28 23
10765 27449 17224 43 12 10
10765 27438 17230 44 12 10
10762 27438 17224 43 12 10
10765 27581 17125 26 7 5
10765 27294 17301 60 23 20
10816 27294 17368 71 28 24
10770 27151 17368 72 29 24
10765 27151 17361 71 29 24
10765 27138 17368 73 30 25
10746 27581 17081 19 5 2
10740 27581 16937 12 7 1
10713 27438 16937 16 7 3
10717 27438 17081 23 6 3
10720 27294 17224 49 16 14
10679 27151 17224 56 21 18
10685 27294 17081 29 10 8
10673 27294 16937 19 10 7
10653 27151 17081 34 11 9
10649 27151 16937 23 11 7
10755 27581 16507 5 7 2
10765 27581 16471 5 6 2
10759 27438 16507 6 8 2
10765 27438 16481 5 7 1
10765 27294 16494 6 8 2
10761 27294 16507 6 8 2
10765 27151 16520 7 8 1
10765 27228 16507 6 8 1
10771 27151 16507 7 8 1
10726 27581 16794 8 8 3
10729 27581 16650 6 7 4
10701 27438 16794 9 7 4
10715 27438 16650 7 7 2
10678 27294 16794 12 10 5
10699 27294 16650 7 9 3
10663 27151 16794 14 9 5
10706 27151 16650 9 8 2
10651 27007 17224 60 25 22
10718 27007 17368 75 33 27
10624 27007 17081 38 13 10
10622 26987 17081 39 13 11
10632 27007 16937 29 14 10
10687 26864 17368 76 36 30
10628 26864 17224 60 27 21
10622 26792 17224 63 29 22
10622 26864 17181 56 24 20
10663 26720 17368 71 34 27
10614 26720 17224 67 33 24
10622 26720 17245 68 33 25
10603 26864 17081 46 20 16
10621 26864 16937 32 18 12
10622 26864 16934 31 17 11
10622 26874 16937 31 17 11
10622 26838 16937 30 16 10
10598 26720 17081 48 20 13
10625 26720 16937 23 7 2
10622 26720 16959 27 9 4
10793 27007 16507 8 9 2
10765 27007 16588 8 7 2
10752 26720 16650 10 7 3
10765 26864 16615 8 7 2
10797 26864 16507 7 9 4
10765 26720 16605 9 7 4
10788 26720 16507 8 8 5
10661 27007 16794 16 13 6
10736 27007 16650 9 7 1
10676 26864 16794 16 6 1
10751 26864 16650 9 6 2
10688 26720 16794 13 5 2
10644 26577 20382 85 57 47
10622 26577 20448 85 58 49
10685 26577 20239 85 55 46
10622 26455 20382 97 65 55
10622 26433 20369 99 67 57
10616 26433 20382 98 66 56
10661 26433 20239 95 64 54
10724 26577 20095 82 53 43
10704 26433 20095 90 57 47
10596 26289 20382 104 70 59
10622 26289 20325 105 71 60
10648 26289 20239 103 68 58
10588 26146 20382 106 71 61
10622 26146 20309 107 72 61
10642 26146 20239 106 70 59
10678 26146 20095 102 66 55
10690 26289 20095 98 63 53
10765 26613 19952 75 47 39
10765 26577 19918 78 48 40
10757 26577 19952 78 49 41
10794 26577 19808 70 40 32
10765 26433 19867 82 51 41
10780 26433 19808 80 49 40
10834 26577 19665 57 26 19
10862 26577 19521 51 20 15
10813 26433 19665 70 38 29
10841 26433 19521 62 29 22
10765 26302 19808 87 54 43
10764 26289 19808 88 55 44
10765 26289 19802 87 54 43
10765 26146 19743 91 56 45
10796 26289 19665 80 47 37
10828 26289 19521 74 40 31
10792 26146 19665 88 53 42
10835 26146 19521 84 50 39
10745 26433 19952 84 52 42
10728 26289 19952 93 57 48
10748 26146 19808 93 57 47
10713 26146 19952 96 61 50
10571 26002 20382 102 70 61
10624 26002 20239 105 71 60
10622 26002 20248 105 72 61
10622 25990 20239 105 71 60
10537 25859 20382 99 68 60
10590 25859 20239 104 70 59
10659 26002 20095 104 68 58
10641 25859 20095 106 70 59
10622 25859 20153 106 71 60
10544 25715 20239 105 70 61
10478 25715 20388 102 68 59
10478 25709 20382 102 68 59
10480 25715 20382 102 68 59
10622 25792 20095 108 72 61
10622 25715 20030 108 72 61
10597 25715 20095 107 71 61
10765 26002 19755 95 58 48
10796 26002 19665 92 55 45
10833 26002 19521 88 54 43
10765 25859 19690 95 59 48
10772 25859 19665 94 58 47
10811 25859 19521 91 56 45
10765 25820 19665 96 59 48
10799 25715 19521 95 59 47
10765 25715 19612 97 60 48
10750 26002 19808 96 60 49
10705 26002 19952 100 64 53
10687 25859 19952 102 66 55
10734 25859 19808 99 61 50
10653 25715 19952 106 70 59
10622 25626 19952 108 72 61
10700 25715 19808 103 66 55
10746 25715 19665 99 61 50
10887 26577 19378 46 14 8
10909 26577 19260 42 9 4
10915 26577 19234 43 10 5
10909 26542 19234 45 12 7
10868 26433 19378 57 24 17
10893 26433 19234 55 24 16
10951 26577 18947 61 29 22
10940 26577 19091 44 15 10
10909 26433 19155 54 23 15
10924 26433 19091 55 24 16
10936 26433 18947 58 26 22
10893 26289 19234 65 33 25
10862 26289 19378 68 35 26
10883 26146 19234 80 49 38
10866 26146 19378 80 47 37
10911 26289 19091 66 36 27
10909 26289 19106 65 35 26
10909 26264 19091 68 38 29
10924 26289 18947 69 37 29
10899 26146 19091 81 50 40
10909 26154 18947 78 49 38
10908 26146 18947 79 50 38
10941 26433 18803 68 38 29
10954 26577 18803 69 32 24
10947 26577 18516 79 46 37
10949 26577 18660 77 43 36
10939 26433 18660 70 39 29
10934 26433 18516 65 35 25
10926 26289 18803 68 38 29
10916 26146 18803 81 49 40
10909 26146 18931 79 49 39
10923 26289 18660 69 39 29
10909 26289 18456 71 40 31
10914 26289 18516 72 40 32
10909 26146 18627 79 49 37
10911 26146 18660 79 49 37
10902 26146 18516 82 51 41
10909 26232 18516 76 44 35
10880 26002 19234 86 54 42
10863 26002 19378 86 53 41
10877 25859 19234 90 55 43
10850 25859 19378 89 54 43
10898 26002 19091 87 54 43
10907 26002 18947 88 55 44
10903 25859 19091 90 57 45
10908 25859 18947 90 57 45
10866 25715 19234 94 58 46
10835 25715 19378 94 58 47
10883 25715 19091 93 57 46
10888 25715 18947 92 58 47
10909 26002 18868 87 54 43
10910 26002 18803 87 54 43
10909 26002 18775 87 54 43
10909 25975 18803 88 54 43
10905 25859 18803 92 58 46
10909 26093 18660 81 50 39
10905 26002 18660 87 54 44
10894 26002 18516 89 56 46
10880 25859 18516 91 58 47
10891 25859 18660 90 57 46
10888 25715 18803 94 59 49
10879 25715 18660 94 61 50
10873 25715 18516 93 59 48
10415 25572 20382 91 64 57
10478 25572 20262 102 70 61
10489 25572 20239 103 70 62
10478 25546 20239 102 70 62
10335 25428 20382 85 64 57
10334 25428 20382 85 64 57
10334 25428 20383 84 63 57
10420 25428 20239 99 70 61
10549 25572 20095 106 72 62
10478 25428 20124 105 72 62
10478 25396 20095 107 73 62
10491 25428 20095 107 72 61
10334 25285 20254 102 69 60
10345 25285 20239 103 70 61
10334 25267 20239 102 69 60
10248 25141 20239 98 65 56
10478 25285 20012 108 73 62
10428 25285 20095 106 72 62
10334 25141 20122 102 68 58
10334 25098 20095 102 68 57
10355 25141 20095 103 69 58
10767 25572 19521 99 62 50
10765 25572 19527 100 63 51
10765 25561 19521 100 63 51
10622 25572 19905 107 72 61
10603 25572 19952 107 72 62
10665 25572 19808 105 69 58
10559 25428 19952 107 72 61
10621 25428 19808 108 71 61
10622 25428 19808 108 71 60
10622 25428 19808 107 71 61
10718 25572 19665 103 65 54
10741 25428 19521 101 64 52
10687 25428 19665 105 68 57
10584 25285 19808 109 72 61
10511 25285 19952 108 72 62
10527 25141 19808 106 71 60
10478 25194 19952 107 72 60
10478 25141 19914 106 71 60
10457 25141 19952 106 71 59
10640 25285 19665 106 69 58
10622 25243 19665 107 70 59
10622 25285 19711 107 70 59
10700 25285 19521 103 66 55
10584 25141 19665 107 71 60
10622 25141 19570 108 72 59
10646 25141 19521 107 71 58
10286 24998 20095 100 66 55
10334 24998 20037 102 67 56
10401 24998 19952 102 67 57
10478 24998 19830 105 69 58
10488 24998 19808 106 70 58
10478 24970 19808 106 70 58
10334 24867 19952 102 68 56
10328 24854 19952 102 68 55
10334 24854 19943 103 69 56
10427 24854 19808 106 70 58
10546 24998 19665 106 71 59
10622 25075 19521 108 72 59
10622 24998 19459 107 72 60
10599 24998 19521 107 72 60
10499 24854 19665 107 72 59
10553 24854 19521 108 73 59
10478 24854 19710 107 71 59
10250 24711 19952 103 69 57
10334 24711 19848 106 71 59
10361 24711 19808 106 72 59
10334 24655 19808 106 71 58
10478 24802 19665 107 72 59
10438 24711 19665 107 72 59
10494 24711 19521 108 72 58
10478 24711 19564 108 72 59
10478 24666 19521 107 71 58
10835 25572 19234 96 60 49
10810 25572 19378 97 60 49
10765 25428 19432 100 63 51
10778 25428 19378 100 63 51
10765 25352 19378 101 64 52
10820 25428 19234 99 63 51
10856 25572 19091 97 61 49
10866 25572 18947 97 61 49
10852 25428 18947 98 62 51
10840 25428 19091 98 62 51
10765 25285 19330 102 65 54
10788 25285 19234 101 64 53
10765 25206 19234 102 65 54
10821 25285 18947 98 63 51
10813 25285 19091 100 64 52
10765 25141 19152 103 66 55
10765 25105 19091 103 67 55
10777 25141 19091 102 66 55
10791 25141 18947 100 65 54
10751 25285 19378 102 65 54
10702 25141 19378 104 68 56
10745 25141 19234 103 66 54
10854 25428 18803 96 61 50
10876 25572 18803 97 62 50
10855 25572 18516 94 61 49
10876 25572 18660 97 63 50
10838 25428 18516 93 58 47
10847 25428 18660 96 60 49
10792 25141 18803 99 65 53
10825 25285 18803 98 62 50
10825 25285 18660 96 61 49
10812 25285 18516 93 59 48
10790 25141 18660 97 63 51
10776 25141 18516 92 59 47
10765 25102 18516 93 59 47
10765 25141 18434 89 55 44
10765 25061 18947 101 65 54
10654 24998 19378 106 71 58
10699 24998 19234 105 69 57
10622 24899 19378 107 72 59
10622 24854 19329 106 71 59
10608 24854 19378 107 72 60
10645 24854 19234 105 70 58
10727 24998 19091 104 68 55
10743 24998 18947 101 65 54
10685 24854 18947 100 66 53
10673 24854 19091 102 67 55
10548 24711 19378 106 70 57
10585 24711 19234 105 70 56
10622 24797 19234 105 70 57
10616 24711 19091 103 69 55
10622 24724 19091 103 69 55
10629 24711 18947 99 65 52
10622 24711 19031 101 67 54
10622 24695 18947 99 65 52
10765 25054 18803 99 64 52
10765 25054 18660 96 62 50
10748 24998 18803 99 64 52
10691 24854 18803 98 64 52
10750 24998 18660 96 62 50
10737 24998 18516 93 59 47
10682 24854 18516 95 60 49
10694 24854 18660 97 62 50
10622 24675 18803 99 65 52
10637 24711 18803 99 65 52
10641 24711 18660 97 63 50
10631 24711 18516 94 60 48
10622 24711 18455 92 59 46
10622 24693 18516 94 60 48
10622 24668 18660 97 63 51
10236 25285 20382 95 65 56
10191 25285 20451 90 62 53
10139 25141 20382 93 63 53
10191 25211 20382 94 64 55
10191 25141 20319 96 64 55
10049 24998 20382 94 62 53
10047 24995 20382 93 61 52
10047 24998 20385 93 61 52
10157 24998 20239 98 65 53
10191 25043 20239 98 65 54
10071 24854 20239 95 61 51
10047 24854 20264 94 60 50
9943 24854 20382 87 54 46
9904 24854 20418 86 53 46
10191 24998 20206 99 66 54
10203 24854 20095 100 66 54
10191 24854 20110 99 65 53
10047 24813 20239 94 60 50
9987 24711 20239 91 56 47
9904 24799 20382 86 53 44
9821 24711 20382 84 50 40
9760 24711 20424 82 49 40
9904 24711 20317 88 53 43
9760 24637 20382 81 47 38
9904 24589 20239 87 54 45
10047 24711 20182 93 60 49
10191 24830 20095 100 65 54
10130 24711 20095 98 63 53
10191 24711 20028 101 66 56
10191 24585 19952 100 66 56
10938 26577 18229 70 40 30
10944 26577 18373 77 46 36
10922 26433 18373 65 34 24
10909 26433 18229 60 29 20
10909 26432 18229 60 29 20
10909 26433 18227 60 28 20
10934 26577 18086 62 31 22
10909 26548 17942 54 21 15
10918 26577 17942 55 22 16
10909 26490 18086 62 29 21
10893 26433 18086 63 29 21
10866 26433 17942 55 24 17
10902 26289 18373 71 40 31
10909 26338 18373 68 37 28
10882 26289 18229 76 44 34
10888 26146 18373 85 53 43
10870 26146 18229 81 50 40
10827 26289 17942 66 35 26
10860 26289 18086 74 42 32
10844 26146 18086 81 49 39
10806 26146 17942 73 42 31
10875 26577 17799 49 18 13
10909 26577 17905 52 20 14
10765 26433 17690 50 20 14
10813 26433 17799 54 24 17
10765 26577 17598 55 24 18
10795 26577 17655 55 24 18
10765 26484 17655 52 22 16
10765 26289 17771 56 28 19
10776 26289 17799 56 28 19
10765 26228 17799 59 30 21
10765 26146 17834 66 36 25
10713 26577 17512 58 26 20
10746 26433 17655 52 22 16
10674 26433 17512 60 30 22
10749 26146 17799 66 36 26
10709 26289 17655 63 34 25
10651 26289 17512 63 34 25
10622 26289 17416 65 37 29
10691 26146 17655 68 39 29
10622 26146 17433 64 36 27
10644 26146 17512 64 35 26
10875 26002 18373 87 55 45
10848 26002 18229 86 54 44
10862 25859 18373 88 54 44
10841 25859 18229 85 52 42
10785 26002 17942 72 40 30
10824 26002 18086 81 50 40
10774 25859 17942 76 46 35
10809 25859 18086 83 51 40
10828 25715 18229 90 56 46
10855 25715 18373 92 57 46
10765 25776 17942 77 46 36
10794 25715 18086 84 52 40
10758 25715 17942 78 47 37
10765 25715 17968 79 47 37
10765 25859 17914 75 45 34
10765 26002 17875 69 38 28
10739 26002 17799 70 40 30
10724 25859 17799 77 47 37
10681 26002 17655 73 42 31
10622 26002 17455 67 38 28
10638 26002 17512 66 37 28
10672 25859 17655 74 43 33
10627 25859 17512 72 42 32
10622 25859 17493 72 42 31
10713 25715 17799 79 46 36
10622 25808 17512 73 41 31
10622 25715 17540 73 40 31
10661 25715 17655 76 43 33
10610 25715 17512 73 40 31
10622 26577 17317 63 31 24
10634 26577 17368 64 31 24
10599 26577 17224 60 30 23
10622 26439 17368 63 34 26
10622 26433 17369 63 35 27
10621 26433 17368 63 35 27
10588 26433 17224 57 30 23
10595 26577 17081 39 13 8
10626 26577 16937 18 4 1
10622 26577 16965 21 4 1
10622 26556 16937 19 4 1
10581 26433 17081 44 16 10
10587 26433 16937 28 11 7
10607 26289 17368 65 38 30
10578 26289 17224 61 33 25
10565 26146 17224 65 37 28
10600 26146 17368 65 37 27
10556 26289 16937 48 24 17
10555 26289 17081 54 29 21
10542 26146 17081 65 39 29
10531 26146 16937 62 36 27
10765 26606 16507 8 7 3
10765 26577 16482 7 7 2
10759 26577 16507 8 7 2
10719 26577 16650 9 6 2
10669 26577 16794 13 6 3
10630 26433 16794 13 5 3
10622 26408 16794 15 5 3
10622 26433 16827 15 5 3
10659 26433 16650 10 6 3
10704 26433 16507 10 8 3
10571 26289 16794 31 14 8
10622 26318 16650 17 9 4
10609 26289 16650 20 11 5
10536 26146 16794 56 32 23
10558 26146 16650 42 24 17
10647 26289 16507 12 9 3
10622 26289 16608 16 10 4
10622 26232 16507 16 10 5
10584 26146 16507 27 15 10
10553 26002 17224 67 39 29
10591 26002 17368 70 41 30
10578 25859 17368 71 41 31
10541 25859 17224 72 42 32
10527 26002 17081 69 41 31
10513 26002 16937 68 42 33
10497 25859 16937 74 45 36
10517 25859 17081 73 44 34
10526 25715 17224 75 44 33
10563 25715 17368 74 43 33
10500 25715 17081 75 45 35
10478 25621 16937 78 48 38
10488 25715 16937 77 47 37
10519 26002 16794 66 40 31
10524 26002 16650 62 37 27
10507 25859 16794 75 48 36
10507 25859 16650 76 49 37
10534 26002 16507 50 28 18
10508 25859 16507 72 46 37
10489 25715 16794 78 49 38
10500 25715 16650 83 55 43
10499 25715 16507 84 58 45
10809 25572 18229 90 55 44
10835 25572 18373 90 56 45
10819 25428 18373 90 55 45
10792 25428 18229 89 55 42
10775 25572 18086 83 50 39
10765 25572 18049 83 50 38
10765 25498 18086 84 49 39
10765 25428 18123 85 50 40
10756 25428 18086 84 49 39
10789 25285 18373 91 57 45
10765 25280 18229 85 51 40
10767 25285 18229 85 50 39
10765 25285 18223 85 50 39
10765 25176 18373 88 54 42
10758 25141 18373 87 53 42
10714 25428 17942 83 50 39
10738 25572 17942 83 49 37
10728 25141 18229 87 53 43
10688 25285 17942 83 49 38
10730 25285 18086 85 51 38
10653 25141 17942 84 50 38
10695 25141 18086 84 51 39
10692 25572 17799 82 48 37
10622 25428 17666 76 44 32
10672 25428 17799 81 47 36
10645 25572 17655 75 43 32
10622 25572 17592 75 43 32
10587 25572 17512 77 45 34
10622 25451 17655 75 43 32
10617 25428 17655 76 44 32
10563 25428 17512 78 46 36
10642 25285 17799 80 45 34
10622 25285 17743 79 46 35
10622 25194 17799 80 46 35
10622 25141 17836 81 48 36
10608 25141 17799 80 47 35
10584 25285 17655 79 47 35
10536 25285 17512 79 46 36
10511 25141 17512 76 45 34
10550 25141 17655 79 47 36
10688 24998 18229 89 55 44
10715 24998 18373 93 58 47
10665 24854 18373 91 58 46
10631 24854 18229 89 56 43
10622 24854 18189 88 55 43
10650 24998 18086 86 53 42
10622 25046 17942 83 50 39
10622 24998 17994 84 51 40
10606 24998 17942 82 50 39
10599 24854 18086 85 53 42
10622 24919 18086 85 52 41
10552 24854 17942 82 51 40
10610 24711 18373 90 57 44
10622 24741 18373 90 57 44
10622 24827 18229 89 56 43
10579 24711 18229 88 56 44
10536 24711 18086 86 53 41
10487 24711 17942 84 53 41
10478 24601 18086 86 54 42
10478 24691 17942 84 53 41
10560 24998 17799 80 49 38
10508 24854 17799 81 48 38
10478 24854 17695 78 47 36
10517 24998 17655 78 47 35
10478 25021 17512 78 47 36
10471 24998 17512 79 48 37
10478 24998 17531 78 47 36
10478 24890 17655 77 47 35
10464 24854 17655 77 47 36
10427 24854 17512 78 48 37
10478 24782 17799 80 48 37
10478 24711 17907 83 52 40
10447 24711 17799 80 49 38
10361 24711 17512 78 50 37
10401 24711 17655 79 49 38
10334 24647 17512 78 50 37
10509 25572 17224 75 44 33
10535 25572 17368 76 44 33
10525 25428 17368 76 46 34
10483 25428 17224 79 47 37
10478 25428 17194 79 47 37
10478 25362 17224 79 47 37
10481 25572 17081 76 46 35
10478 25572 17034 76 46 36
10478 25551 17081 76 46 35
10471 25572 16937 78 48 38
10458 25428 17081 79 49 37
