ply
format ascii 1.0
element vertex 1662
property float x
property float y
property float z
property uchar red
property uchar green
property uchar blue
end_header
14996 19335 1884 185 184 181
14879 19335 1836 184 184 181
14879 19396 1884 187 186 182
15019 19320 1884 185 184 181
15299 19142 1884 182 182 180
15299 19195 1915 184 183 181
15159 19195 1861 181 181 180
15223 19195 1884 182 182 181
15299 19054 1837 178 179 178
15019 19195 1806 179 180 179
15159 18982 1744 177 177 175
15159 19054 1781 179 178 176
15019 19077 1744 178 179 176
14883 19195 1744 180 180 179
14879 19195 1741 180 180 180
14879 19198 1744 181 180 180
15052 19054 1744 178 179 176
15019 19054 1731 177 178 175
14879 19054 1670 177 177 176
14738 19335 1785 183 182 179
14598 19347 1744 183 181 178
14598 19335 1736 182 180 178
14621 19335 1744 183 181 178
14738 19270 1744 182 182 179
14458 19424 1744 183 178 174
14458 19335 1690 181 179 176
14738 19195 1692 180 181 179
14598 19195 1650 180 180 177
14598 19108 1603 181 180 175
14738 19054 1613 176 176 176
14738 19032 1603 175 175 175
14598 19054 1575 179 178 174
14706 19054 1603 177 176 175
14458 19195 1614 179 179 176
14458 19173 1603 179 178 175
14414 19195 1603 179 178 175
14458 19054 1547 178 177 173
15299 18881 1744 175 176 175
15299 18914 1762 175 176 175
15252 18914 1744 175 176 174
15159 18914 1710 176 176 174
15159 18774 1640 175 174 171
15299 18774 1690 174 174 174
15019 18914 1657 177 175 173
14879 18914 1603 176 175 172
15019 18794 1603 177 176 172
15045 18774 1603 176 175 171
15019 18774 1596 176 175 171
14879 18774 1549 175 172 169
15299 18634 1631 173 172 170
15159 18687 1603 173 174 170
15219 18634 1603 173 173 170
15159 18634 1585 173 173 170
15299 18542 1603 173 170 167
15344 18494 1603 173 170 166
15299 18494 1590 173 170 166
15159 18494 1549 173 170 168
15019 18634 1546 175 173 170
14738 18914 1553 174 173 172
14879 18634 1504 176 171 166
15019 18494 1511 174 172 169
14879 18463 1463 177 173 168
14879 18494 1472 176 174 168
14598 18914 1518 175 174 173
14738 18774 1500 174 169 166
14598 18774 1465 172 171 167
14598 18768 1463 172 170 166
14458 18840 1463 176 174 170
14458 18914 1492 176 175 171
14589 18774 1463 172 171 167
14458 18774 1438 175 173 169
14738 18641 1463 174 166 161
14738 18634 1462 173 165 161
14744 18634 1463 174 166 161
14598 18634 1424 173 167 163
14847 18494 1463 176 172 166
14738 18494 1435 174 165 160
14598 18494 1393 170 161 157
14458 18494 1354 170 164 162
14458 18634 1392 172 170 166
14178 19972 2024 189 193 198
14038 20011 2024 190 194 199
13911 20035 2024 193 196 200
13898 20038 2024 193 196 199
13898 20035 2021 193 196 199
13477 20354 2024 188 186 192
13337 20456 2041 183 181 182
13337 20436 2024 183 181 183
13524 20315 2024 186 184 191
13477 20315 1994 188 188 194
13337 20315 1923 186 184 186
13337 20259 1884 185 181 183
13758 20096 2024 189 189 192
13649 20175 2024 178 173 177
13618 20175 2003 176 171 175
13618 20207 2024 179 175 180
13758 20035 1965 195 197 200
13585 20035 1884 191 187 190
13618 20035 1902 195 192 195
13618 20013 1884 195 191 194
13445 20175 1884 168 165 168
13477 20175 1904 166 163 167
13477 20139 1884 169 166 169
13337 20175 1826 183 180 186
13477 20035 1825 169 165 169
13336 20035 1744 154 151 155
13337 20035 1744 154 151 155
13337 20034 1744 154 151 155
14318 19895 1998 194 195 196
14318 19918 2024 195 195 196
14178 19895 1931 191 193 196
14178 19846 1884 191 193 195
14318 19777 1884 188 187 188
14318 19755 1865 187 186 188
14178 19755 1808 189 191 192
14038 19887 1884 187 190 196
14038 19895 1892 187 191 197
13999 19895 1884 187 191 196
13898 19895 1865 189 192 195
13898 19914 1884 190 193 196
14038 19719 1744 188 189 190
14038 19755 1769 188 188 191
13922 19755 1744 189 190 191
13898 19761 1744 189 190 191
13898 19755 1739 190 190 190
14318 19615 1776 175 169 169
14239 19615 1744 178 173 174
14178 19615 1719 182 178 180
14178 19655 1744 184 181 182
14318 19475 1712 177 172 168
14318 19544 1744 176 171 169
14178 19475 1654 166 160 158
14038 19615 1678 186 186 186
13898 19615 1646 188 186 185
14038 19476 1603 176 170 172
14038 19475 1603 176 170 172
14041 19475 1603 175 169 171
13898 19475 1562 185 183 181
13898 19544 1603 187 185 183
13758 19895 1833 193 194 197
13758 19951 1884 195 195 198
13618 19895 1790 193 194 196
13758 19755 1718 191 189 189
13758 19792 1744 192 190 191
13618 19835 1744 191 191 192
13618 19755 1689 190 187 186
13477 19906 1744 190 187 189
13477 19895 1737 192 189 190
13495 19895 1744 193 191 192
13337 19895 1677 161 154 158
13477 19755 1649 188 183 184
13337 19755 1604 181 179 178
13337 19755 1603 181 179 178
13337 19755 1603 180 178 177
13758 19596 1603 188 187 186
13758 19615 1616 189 187 186
13618 19636 1603 188 185 184
13693 19615 1603 188 187 185
13618 19615 1590 188 186 183
13477 19684 1603 187 183 182
13477 19615 1561 187 184 182
13618 19475 1503 186 183 179
13758 19475 1528 184 185 182
13337 19615 1523 182 179 179
13477 19475 1479 184 180 177
13392 19475 1463 184 180 178
13337 19475 1454 183 179 178
13337 19496 1463 183 179 178
13273 20456 2024 181 179 182
13197 20474 2024 178 177 181
13197 20456 2006 178 177 181
13057 20456 1992 181 180 183
13197 20316 1884 177 176 179
13197 20315 1883 177 176 179
13199 20315 1884 177 176 179
13057 20315 1864 174 173 175
13057 20338 1884 175 174 175
12917 20456 1997 186 184 183
12917 20315 1869 180 179 178
12917 20332 1884 181 180 179
13197 20175 1774 183 183 185
13197 20128 1744 179 179 181
13057 20175 1744 169 168 171
13057 20175 1744 168 167 170
13197 20035 1680 173 172 177
13057 19979 1603 174 172 174
13057 20035 1637 180 179 180
13017 20175 1744 169 168 170
12917 20177 1744 170 168 169
12902 20175 1744 170 168 169
12917 20175 1742 169 167 168
12917 20035 1625 167 164 166
12917 20006 1603 166 164 165
12777 20456 2007 186 182 179
12777 20472 2024 185 182 180
12637 20464 2024 173 169 169
12637 20456 2015 174 170 170
12777 20319 1884 185 178 174
12777 20315 1880 184 177 173
12695 20315 1884 181 175 171
12637 20315 1886 178 173 170
12637 20313 1884 179 173 170
12497 20456 2020 170 166 164
12497 20460 2024 170 166 164
12357 20459 2024 175 171 169
12357 20456 2020 175 171 169
12497 20313 1884 178 173 170
12497 20315 1886 177 173 170
12357 20302 1884 174 170 167
12357 20315 1895 174 170 168
12777 20161 1744 178 174 170
12777 20175 1757 179 175 171
12637 20175 1769 180 171 166
12637 20142 1744 181 173 168
12777 20035 1634 168 166 167
12777 19996 1603 167 164 164
12637 20035 1660 179 172 167
12497 20126 1744 179 169 164
12497 20175 1778 179 169 164
12357 20175 1787 179 171 168
12357 20112 1744 176 168 165
12357 20035 1693 175 165 160
12497 20035 1680 177 166 161
13184 19895 1603 147 141 144
13197 19895 1609 146 140 143
13197 19882 1603 147 141 144
13057 19895 1555 164 161 165
13197 19755 1549 155 147 149
12637 19895 1548 170 168 167
12637 19965 1603 173 168 164
12497 19895 1577 179 169 164
12497 19928 1603 180 169 164
12357 19899 1603 174 164 158
12357 19895 1601 174 163 157
12327 19895 1603 173 163 157
13057 19755 1495 143 137 141
12917 19895 1527 175 173 173
12968 19755 1463 154 150 152
12917 19783 1463 165 161 162
12917 19755 1447 161 157 158
13197 19615 1483 179 176 176
13057 19678 1463 150 143 144
13135 19615 1463 168 163 162
13057 19615 1440 152 144 142
13197 19475 1421 180 179 176
13197 19574 1463 179 177 176
13057 19475 1393 174 169 167
12917 19615 1406 138 132 133
12917 19475 1361 150 142 140
12777 19895 1526 166 163 163
12777 19755 1431 169 165 165
12777 19806 1463 166 162 162
12637 19793 1463 165 161 160
12637 19755 1435 165 161 160
12497 19755 1454 166 162 159
12497 19766 1463 167 162 159
12456 19755 1463 168 163 160
12357 19725 1463 171 164 161
12357 19755 1489 175 168 163
12637 19615 1346 162 156 157
12777 19615 1369 152 146 146
12637 19475 1293 149 144 144
12637 19559 1323 157 150 152
12777 19479 1323 132 125 125
12781 19475 1323 132 125 125
12777 19475 1322 132 125 125
12497 19615 1342 161 158 155
12497 19584 1323 160 157 155
12357 19615 1365 159 156 155
12357 19567 1323 155 152 149
12357 19475 1251 158 154 152
12497 19475 1264 159 156 156
14318 19335 1643 178 176 174
14178 19355 1603 173 169 167
14202 19335 1603 175 171 169
14178 19335 1595 173 169 167
14318 19248 1603 177 176 174
14038 19335 1538 159 151 149
14178 19195 1537 175 174 171
14318 19195 1580 177 177 174
13898 19335 1488 172 167 166
13898 19269 1463 164 158 157
14318 19054 1520 177 177 172
14118 19054 1463 176 175 171
14178 19054 1483 176 175 171
14178 19000 1463 176 174 171
14038 19195 1486 168 161 159
13974 19195 1463 160 152 150
14038 19132 1463 171 166 163
13898 19195 1437 154 147 145
14038 19054 1436 176 174 171
13898 19054 1384 171 167 164
13798 19335 1463 181 178 177
13758 19335 1455 182 181 179
13758 19351 1463 183 182 180
13618 19335 1431 183 180 177
13618 19399 1463 184 181 178
13477 19441 1463 184 180 177
13477 19335 1416 183 180 176
13337 19335 1390 183 179 175
13758 19195 1397 166 162 161
13618 19195 1373 180 177 175
13618 19075 1323 178 173 172
13758 18997 1323 167 163 162
13758 19054 1346 165 160 159
13618 19054 1315 177 172 171
13658 19054 1323 174 169 168
13477 19127 1323 184 181 178
13477 19195 1352 184 182 178
13337 19180 1323 182 180 175
13337 19195 1329 182 179 176
13477 19054 1294 182 179 176
13337 19054 1278 182 179 174
14318 18914 1466 179 176 171
14306 18914 1463 179 175 171
14318 18906 1463 179 176 171
14178 18914 1432 177 174 170
14178 18774 1380 177 172 167
14318 18774 1413 177 175 170
14038 18914 1384 176 170 165
13898 18914 1333 174 169 166
13898 18888 1323 174 168 166
13866 18914 1323 174 168 167
14009 18774 1323 172 164 159
14038 18774 1334 173 164 159
14038 18743 1323 172 163 158
13898 18774 1284 170 166 162
14318 18634 1364 174 172 167
14138 18634 1323 176 168 162
14178 18634 1336 178 171 165
14178 18594 1323 178 172 166
14318 18494 1324 171 168 164
14314 18494 1323 171 168 165
14318 18490 1323 170 167 164
14178 18494 1291 176 170 166
14038 18634 1288 170 161 156
13898 18634 1236 170 163 159
14038 18494 1243 165 156 152
13898 18494 1186 164 157 154
13898 18483 1183 164 157 154
13886 18494 1183 165 159 156
13758 18914 1294 170 165 163
13618 18914 1265 170 162 158
13758 18774 1244 170 167 164
13618 18774 1219 156 147 143
13337 18914 1223 181 175 170
13477 18914 1243 174 170 167
13477 18774 1197 152 142 138
13477 18727 1183 149 139 134
13337 18782 1183 167 163 162
13337 18774 1181 167 163 162
13357 18774 1183 165 160 158
13758 18634 1195 172 168 165
13758 18597 1183 173 169 166
13690 18634 1183 172 166 162
13618 18634 1172 168 160 156
13618 18670 1183 165 157 153
13618 18494 1142 166 160 155
13758 18494 1154 173 169 166
13337 18634 1153 150 139 134
13477 18634 1160 142 132 127
13477 18494 1136 153 143 138
13337 18494 1139 136 125 118
13057 19335 1339 179 178 175
13197 19335 1366 181 178 175
13057 19289 1323 178 177 174
13197 19230 1323 181 178 175
12961 19335 1323 181 178 176
12917 19335 1317 180 176 174
12917 19358 1323 175 171 169
13197 19195 1310 181 178 175
13298 19195 1323 181 179 175
13057 19195 1293 178 175 172
13197 19054 1257 180 176 171
13057 19054 1247 177 173 170
12917 19195 1273 178 175 171
12917 19054 1232 175 169 164
12777 19335 1291 156 148 145
12637 19335 1254 133 124 123
12431 19335 1183 153 147 147
12497 19335 1207 147 139 139
12357 19335 1159 158 153 153
12357 19376 1183 159 155 153
12497 19242 1183 135 126 125
12777 19195 1249 176 172 168
12637 19195 1217 147 139 135
12777 19054 1211 171 163 158
12637 19054 1180 168 165 160
12651 19054 1183 169 165 160
12637 19067 1183 166 162 157
12497 19195 1173 128 119 117
12530 19195 1183 130 121 118
12357 19195 1114 145 138 137
12357 19054 1102 129 120 117
12497 19054 1150 151 143 138
13197 18914 1212 180 171 166
13057 18829 1183 177 170 164
13057 18914 1205 177 170 163
13197 18774 1176 178 171 165
13197 18807 1183 179 171 166
13057 18774 1171 176 169 164
12917 18914 1196 172 169 164
12917 18860 1183 170 167 162
12917 18774 1165 169 163 158
13197 18634 1151 168 163 161
13057 18634 1146 179 174 168
13057 18494 1131 167 158 154
13197 18494 1139 146 135 130
12917 18634 1139 175 170 165
12917 18494 1121 177 172 169
12777 18916 1183 170 166 162
12781 18914 1183 170 167 163
12777 18914 1183 169 166 162
12637 18914 1159 168 158 152
12637 18774 1134 169 163 158
12777 18774 1157 169 163 157
12497 18914 1126 159 152 148
12357 18914 1088 146 137 134
12497 18774 1106 167 161 155
12357 18774 1068 165 159 155
12777 18634 1130 171 165 161
12637 18634 1114 168 160 154
12777 18494 1111 174 166 162
12637 18494 1093 168 160 155
12497 18634 1087 166 156 151
12357 18634 1054 161 156 151
12322 18634 1043 162 156 151
12497 18494 1069 168 158 153
12357 18547 1043 163 157 153
12384 18494 1043 164 158 154
12357 18494 1036 164 158 154
16280 18354 1790 171 169 168
16140 18335 1744 168 166 166
16140 18354 1751 169 167 167
16280 18258 1744 168 166 164
16280 18214 1721 168 166 163
16140 18214 1691 168 164 164
16108 18354 1744 170 168 168
15999 18354 1717 172 170 171
15999 18414 1744 173 172 172
15999 18214 1663 171 168 166
16280 18074 1648 173 167 163
16140 18074 1629 167 165 162
16280 17976 1603 178 171 165
16280 17934 1584 178 171 165
16140 17934 1573 169 165 161
16140 18007 1603 167 164 161
15999 18074 1615 168 166 163
15917 18074 1603 170 168 164
15999 18045 1603 167 165 162
15999 17934 1559 165 162 160
15859 18354 1690 174 173 170
15719 18354 1666 175 174 170
15859 18214 1644 171 171 168
15719 18214 1622 175 173 169
15579 18354 1635 174 172 168
15439 18376 1603 174 171 164
15439 18354 1598 174 170 163
15460 18354 1603 174 171 164
15595 18214 1603 175 173 166
15579 18214 1601 174 172 165
15579 18224 1603 174 172 166
15439 18214 1567 174 168 162
15859 18095 1603 172 170 166
15859 18074 1596 172 170 165
15719 18074 1582 175 171 166
15719 18149 1603 176 173 168
15719 17934 1541 171 167 163
15859 17934 1550 170 167 164
15579 18074 1565 175 171 164
15439 18074 1532 175 167 160
15579 17934 1527 176 171 164
15439 17934 1501 173 167 160
16140 17793 1507 173 165 160
16280 17793 1514 180 174 168
16280 17687 1463 180 178 172
16140 17696 1463 177 167 162
15999 17697 1463 168 164 158
15999 17793 1501 167 163 159
16280 17653 1451 180 179 173
16377 17653 1463 178 176 174
16140 17653 1448 177 167 162
16140 17513 1399 178 171 164
16280 17513 1408 176 175 172
15999 17513 1394 170 163 158
15999 17653 1447 168 164 158
15859 17793 1497 168 165 160
15719 17793 1494 171 168 162
15719 17706 1463 171 167 163
15859 17704 1463 167 163 159
15579 17793 1482 175 170 164
15452 17793 1463 174 168 162
15439 17800 1463 174 167 161
15439 17793 1461 173 167 161
15579 17732 1463 176 169 163
15719 17653 1446 171 167 164
15859 17653 1445 167 163 160
15859 17513 1396 166 162 158
15719 17513 1401 170 166 161
15579 17653 1440 175 168 161
15439 17653 1423 173 164 158
15579 17513 1398 173 167 160
15439 17513 1386 173 164 157
15299 18354 1558 174 168 162
15159 18354 1509 170 167 165
15299 18214 1526 172 164 158
15159 18214 1471 171 166 162
15134 18214 1463 171 167 163
15159 18184 1463 170 165 161
15010 18354 1463 174 171 168
15019 18354 1465 174 171 168
15019 18347 1463 173 171 168
14879 18354 1439 176 172 169
15019 18214 1433 172 170 167
14879 18214 1403 175 172 167
15299 18074 1490 168 159 153
15159 18074 1438 167 162 156
15231 18074 1463 167 160 154
15299 17955 1463 167 159 153
15299 17934 1459 167 158 152
15315 17934 1463 167 159 153
15159 17934 1415 168 160 154
15019 18074 1402 171 167 162
14879 18074 1367 173 170 166
14879 17934 1336 173 168 164
15019 17934 1370 170 165 160
14598 18354 1372 167 157 153
14738 18354 1408 174 167 162
14738 18214 1376 176 170 165
14598 18214 1347 168 158 153
14434 18354 1323 166 157 154
14458 18354 1330 166 156 152
14458 18314 1323 164 155 151
14458 18214 1307 159 150 146
14515 18214 1323 162 152 148
14738 18074 1341 175 170 165
14598 18122 1323 171 163 158
14656 18074 1323 174 168 163
14598 18074 1312 172 165 160
14738 18006 1323 174 170 164
14738 17934 1307 173 168 163
14824 17934 1323 173 169 164
14598 17934 1284 170 165 161
14458 18074 1279 158 147 143
14458 17934 1258 162 150 144
15299 17793 1428 165 156 151
15159 17793 1386 167 159 154
15019 17793 1346 169 163 158
14921 17793 1323 171 166 162
14879 17852 1323 172 167 163
14879 17793 1315 171 166 162
15019 17667 1323 168 163 160
15159 17653 1356 166 157 152
15299 17653 1392 165 156 150
15299 17513 1363 167 156 149
15159 17513 1329 165 155 148
15134 17513 1323 166 155 149
15159 17478 1323 165 155 148
15019 17653 1321 168 163 160
15028 17653 1323 167 162 159
14879 17653 1295 171 167 160
15019 17513 1302 169 160 154
14879 17513 1280 171 164 158
14738 17793 1288 172 167 162
14458 17793 1242 160 152 146
14598 17793 1265 170 165 162
14598 17653 1251 169 163 159
14738 17653 1273 171 166 160
14598 17513 1243 167 163 157
14738 17513 1261 170 164 158
14458 17513 1224 167 163 159
14458 17653 1232 165 160 154
16280 17373 1364 170 167 166
16140 17373 1353 179 174 168
16280 17233 1336 168 163 162
16200 17233 1323 173 169 165
16140 17267 1323 177 173 168
16140 17233 1314 176 172 168
15999 17373 1348 173 164 159
15999 17294 1323 175 167 161
15999 17233 1307 175 168 162
16280 17093 1324 166 162 158
16275 17093 1323 167 163 159
16140 17093 1295 170 165 162
16259 16953 1323 161 159 159
16280 16953 1330 159 156 156
16140 16953 1287 164 161 160
15999 17093 1279 174 168 163
15999 16953 1265 170 165 161
15859 17284 1323 165 161 158
15859 17373 1349 166 162 159
15719 17373 1356 166 162 156
15859 17233 1311 166 161 158
15719 17233 1318 163 159 155
15719 17256 1323 163 159 155
15625 17233 1323 171 166 159
15439 17373 1352 172 162 155
15579 17373 1360 172 167 161
15579 17233 1326 175 170 162
15579 17218 1323 174 170 162
15439 17233 1323 173 163 156
15436 17233 1323 172 162 155
15439 17231 1323 173 163 156
15719 17093 1291 164 160 155
15859 17093 1280 165 163 158
15439 17093 1300 172 163 155
15579 17093 1300 171 168 162
15439 16953 1281 172 161 155
15859 16953 1260 167 164 159
15719 16953 1268 163 161 157
15579 16953 1278 169 166 160
16280 16813 1348 149 143 143
16140 16813 1295 164 160 160
16218 16813 1323 159 155 155
16189 16673 1323 140 136 136
16140 16673 1305 157 153 152
16280 16673 1359 114 107 108
15999 16813 1261 164 159 154
15999 16673 1264 158 150 146
16280 16532 1359 115 106 106
16174 16532 1323 116 107 110
16140 16532 1312 121 113 115
16280 16392 1340 145 138 134
16140 16392 1306 113 104 103
16214 16392 1323 127 118 116
15999 16392 1275 140 132 133
15999 16532 1272 155 148 146
15859 16813 1249 166 161 154
15719 16813 1251 164 159 155
15719 16673 1238 161 155 151
15859 16673 1242 159 150 144
15439 16813 1263 172 164 157
15579 16813 1261 167 163 158
15439 16673 1240 169 163 158
15579 16673 1240 161 157 152
15859 16532 1243 152 142 137
15719 16532 1229 155 145 139
15859 16392 1247 148 139 134
15719 16392 1227 147 136 130
15439 16532 1222 162 157 154
15579 16532 1224 154 148 144
15579 16392 1218 151 142 138
15439 16392 1212 157 150 148
15299 17373 1332 165 156 149
15252 17373 1323 164 155 149
15299 17316 1323 165 156 149
15159 17373 1308 164 155 150
15299 17233 1311 167 157 151
15159 17233 1291 166 157 151
15019 17373 1286 167 159 153
14879 17373 1264 169 162 156
14879 17233 1246 167 160 153
15019 17233 1265 168 159 154
15299 17093 1290 167 157 150
15159 17093 1273 166 157 153
15159 16953 1256 165 156 151
15299 16953 1273 166 155 148
15019 17093 1251 167 160 153
14879 17093 1238 166 159 153
15019 16953 1237 166 160 154
14879 16953 1229 165 160 153
14738 17373 1245 169 163 156
14598 17373 1235 167 162 157
14598 17233 1230 166 160 155
14738 17233 1236 166 161 155
14458 17373 1220 166 160 154
14458 17233 1213 164 160 154
14598 17093 1227 165 160 154
14738 17093 1234 165 159 154
14598 16953 1226 161 156 152
14738 16953 1230 163 158 153
14458 17093 1207 165 160 154
14356 17093 1183 165 160 153
14366 16953 1183 164 154 149
14458 16953 1209 164 157 153
15299 16813 1253 167 156 149
15159 16813 1243 166 157 151
15299 16673 1237 168 158 150
15159 16673 1232 167 158 152
14879 16813 1228 163 157 151
15019 16813 1232 167 159 153
14879 16673 1230 162 155 150
15019 16673 1228 165 159 152
15299 16532 1221 169 159 151
15159 16532 1220 168 159 153
15299 16392 1210 167 157 149
15159 16392 1212 169 160 153
14879 16532 1233 158 151 147
15019 16532 1223 164 158 152
15019 16392 1218 162 156 150
14879 16392 1233 156 150 146
14598 16813 1230 161 155 149
14738 16813 1229 161 156 148
14738 16673 1236 158 153 147
14598 16673 1236 159 154 148
14357 16813 1183 160 149 143
14458 16813 1208 163 156 150
14458 16673 1211 160 155 149
14346 16673 1183 150 138 132
14598 16532 1241 157 151 147
14738 16532 1242 157 151 146
14598 16392 1247 156 151 145
14738 16392 1249 154 150 145
14458 16532 1216 157 152 144
14458 16392 1223 153 141 133
14318 18354 1292 166 161 159
14178 18354 1251 171 167 163
14178 18214 1221 166 160 156
14318 18214 1264 163 155 152
13990 18354 1183 156 147 142
14038 18354 1202 158 149 144
13898 18354 1148 159 150 148
14038 18274 1183 155 146 141
14038 18214 1169 154 145 141
14075 18214 1183 157 149 144
13898 18214 1116 160 152 148
14318 18074 1242 158 148 144
14132 18074 1183 161 152 150
14178 18074 1201 162 154 152
14318 17934 1228 151 140 134
14174 17934 1183 158 148 144
14178 17934 1185 157 147 143
13898 18074 1088 161 154 150
14038 18074 1145 156 145 142
13898 17934 1065 158 152 152
14038 17934 1124 154 145 141
13618 18354 1108 167 160 156
13758 18354 1116 169 162 158
13758 18214 1084 165 157 152
13618 18214 1079 167 159 155
13337 18354 1124 143 131 126
13477 18354 1115 157 148 143
13337 18214 1103 152 143 138
13477 18214 1089 167 161 156
13618 18074 1055 165 159 155
13758 18074 1059 168 159 154
13794 17934 1043 166 159 155
13758 17974 1043 169 161 155
13758 17934 1036 169 161 155
13618 17994 1043 164 159 155
13618 17934 1034 164 158 155
13337 18074 1087 169 161 154
13477 18074 1069 166 160 158
13550 17934 1043 164 159 155
13477 17934 1053 165 162 157
13337 17934 1072 171 162 157
14318 17793 1216 150 139 133
14178 17911 1183 157 146 142
14178 17793 1175 152 140 135
14203 17793 1183 152 140 135
14038 17793 1104 149 140 136
13898 17815 1043 154 146 146
13907 17793 1043 152 144 143
13898 17793 1040 153 145 145
14238 17653 1183 147 136 131
14318 17653 1207 152 141 136
14178 17653 1162 145 135 131
14285 17513 1183 156 144 138
14318 17513 1193 160 149 142
14178 17513 1146 145 134 130
13957 17653 1043 137 129 126
14038 17653 1082 138 130 126
14038 17513 1065 131 120 117
13986 17513 1043 131 121 119
13477 17804 1043 165 162 156
13473 17793 1043 166 162 156
13477 17793 1042 165 161 155
13337 17793 1065 167 161 156
13452 17653 1043 165 160 155
13477 17653 1039 164 159 154
13337 17653 1061 165 161 156
13462 17513 1043 163 157 154
13477 17513 1041 162 157 153
13337 17513 1060 165 159 154
13197 18354 1127 135 122 116
13057 18354 1123 147 135 130
13057 18214 1122 132 118 112
13197 18214 1115 134 122 116
12917 18354 1113 165 156 153
12917 18214 1112 146 136 131
13057 18074 1118 129 116 109
13197 18074 1103 149 139 132
13057 17934 1104 144 134 128
13197 17934 1090 168 161 156
12917 18074 1113 130 117 112
12917 17934 1111 122 109 103
12637 18354 1077 171 164 158
12777 18354 1096 176 171 167
12637 18214 1065 176 170 164
12777 18214 1088 166 157 155
12497 18354 1057 162 152 147
12416 18354 1043 160 150 145
12357 18354 1032 159 149 144
12474 18214 1043 155 144 139
12497 18214 1047 156 145 140
12777 18074 1088 151 140 138
12637 18074 1057 170 163 161
12555 18074 1043 176 170 166
12565 17934 1043 163 156 152
12637 17934 1063 152 142 138
12777 17934 1093 129 116 111
12497 18074 1034 178 171 167
12497 18171 1043 163 153 148
12497 17934 1027 170 166 163
13057 17793 1089 166 160 152
13197 17793 1078 167 162 158
12917 17793 1101 140 128 121
13057 17653 1077 170 166 159
13197 17653 1072 166 163 157
13197 17513 1069 168 164 156
13057 17513 1074 168 164 157
12917 17653 1089 166 156 149
12917 17513 1086 167 163 157
12777 17793 1101 117 105 98
12637 17793 1080 129 117 111
12497 17793 1038 153 143 137
12515 17793 1043 151 141 135
12497 17764 1043 150 139 133
12637 17653 1096 113 102 95
12777 17653 1100 137 124 118
12637 17513 1098 135 123 116
12777 17513 1090 165 157 150
12437 17653 1043 142 130 125
12357 17561 1043 138 127 122
12497 17653 1065 132 120 115
12319 17513 1043 134 123 118
12357 17513 1058 129 118 113
12497 17513 1090 112 100 95
13898 17653 1019 145 136 133
13898 17513 1014 142 134 130
13618 17793 1019 163 156 153
13758 17793 1014 165 156 154
13758 17653 1000 161 153 150
13618 17653 1011 161 155 152
13618 17513 1014 160 155 151
13758 17513 999 153 145 142
12357 18214 1022 150 139 134
12357 17934 996 174 172 166
12357 18074 1008 161 150 146
12357 17653 1016 150 140 134
12357 17793 996 170 164 159
14305 17373 1183 163 154 149
14318 17373 1188 165 156 152
14318 17293 1183 165 158 154
14178 17373 1125 140 129 123
14318 17233 1179 164 159 154
14334 17233 1183 164 160 155
14178 17233 1119 137 124 120
14017 17373 1043 125 114 110
14038 17373 1051 125 114 109
14027 17233 1043 124 113 109
14038 17233 1047 123 112 108
14178 17093 1113 134 122 117
14318 17093 1174 162 156 149
14318 16953 1170 159 148 142
14178 16953 1109 134 121 116
14041 17093 1043 128 115 110
14038 17093 1042 129 116 111
14038 17080 1043 130 117 112
14038 17136 1043 127 114 110
13898 16953 1029 153 144 139
13975 16953 1043 149 138 133
14038 16953 1059 144 131 126
13477 17373 1038 162 157 152
13446 17373 1043 163 158 153
13337 17373 1061 165 160 153
13477 17233 1040 161 157 151
13456 17233 1043 162 157 152
13477 17191 1043 161 156 150
13337 17233 1060 165 156 151
13618 17093 1029 159 154 148
13613 16953 1043 157 150 144
13618 16953 1042 157 150 144
13618 16948 1043 157 149 143
13477 17093 1050 161 152 147
13523 17093 1043 160 152 148
13337 17093 1068 160 155 150
13337 16953 1076 160 154 150
13477 16953 1063 159 152 146
14178 16813 1123 133 120 114
14318 16813 1173 156 144 138
14318 16673 1176 146 133 126
14178 16673 1134 131 117 111
14038 16813 1072 147 136 130
13901 16813 1043 157 147 140
13898 16813 1042 158 148 141
13898 16807 1043 158 148 141
14038 16673 1088 144 133 126
13898 16673 1059 155 145 140
14319 16532 1183 127 114 107
14318 16532 1183 127 114 107
14318 16528 1183 126 113 106
14178 16532 1142 124 111 103
14318 16392 1189 119 103 96
14296 16392 1183 118 102 95
14178 16392 1150 127 114 107
14038 16532 1095 146 134 128
13898 16532 1073 154 145 139
14038 16392 1108 152 141 133
13898 16392 1093 156 147 141
13758 16813 1042 157 148 142
13750 16813 1043 157 148 142
13758 16804 1043 156 148 142
13618 16813 1060 157 149 143
13758 16673 1057 155 149 142
13618 16673 1074 158 152 145
13477 16813 1075 160 154 149
13337 16813 1082 163 156 151
13337 16673 1096 156 149 142
13477 16673 1087 159 151 143
13758 16532 1072 156 148 142
13618 16532 1086 157 150 144
13758 16392 1090 157 148 142
13618 16392 1099 157 149 143
13337 16532 1106 156 151 145
13477 16532 1096 157 150 144
13337 16392 1113 158 154 147
13477 16392 1108 155 150 143
13057 17373 1074 166 161 156
13197 17373 1069 167 160 154
13057 17233 1075 164 160 156
13197 17233 1071 162 156 150
12917 17233 1081 169 164 157
12917 17373 1080 167 163 158
13197 17093 1074 163 157 153
13057 17093 1077 166 162 156
13057 16953 1081 165 159 153
13197 16953 1082 164 159 151
12917 17093 1085 167 163 157
12917 16953 1092 166 162 156
12637 17373 1100 164 155 149
12777 17373 1090 170 166 159
12637 17233 1097 169 164 157
12777 17233 1089 169 165 159
12497 17373 1107 136 121 114
12357 17373 1091 112 99 93
12357 17233 1102 133 120 114
12497 17233 1104 166 156 149
12777 17093 1092 168 163 157
12637 17093 1098 168 164 158
12777 16953 1095 166 162 156
12637 16953 1094 168 162 157
12497 17093 1094 169 165 157
12357 17093 1101 167 159 151
12497 16953 1091 168 163 157
12357 16953 1094 168 165 158
13057 16813 1097 161 157 151
13197 16813 1088 162 157 152
13057 16673 1098 162 155 150
13197 16673 1102 156 150 143
12917 16673 1099 163 159 153
12917 16813 1097 164 159 153
13197 16532 1112 159 154 149
13057 16532 1107 161 157 151
13057 16392 1111 160 156 150
13197 16392 1111 160 155 149
12917 16392 1109 162 156 149
12917 16532 1105 163 156 150
12637 16813 1097 167 162 155
12777 16813 1098 165 159 153
12777 16673 1101 164 159 153
12637 16673 1097 166 159 154
12497 16813 1096 168 163 156
12357 16813 1087 168 164 156
12357 16673 1084 168 162 154
12497 16673 1091 166 163 155
12637 16532 1093 165 160 154
12777 16532 1101 163 157 152
12777 16392 1102 163 156 152
12637 16392 1094 164 158 153
12497 16532 1089 165 162 154
12357 16532 1085 168 161 153
12497 16392 1090 165 162 154
12357 16392 1087 166 157 149
13898 17233 1009 144 134 129
13898 17373 1010 141 132 128
13898 17093 1017 149 140 134
13758 17373 996 152 145 141
13618 17373 1012 160 153 149
13758 17233 1002 154 144 140
13618 17233 1020 159 154 149
13758 17093 1014 154 147 141
13758 16953 1022 156 148 142
8714 20456 3100 164 163 158
8434 20456 3334 163 163 159
8293 20473 3425 170 169 165
8293 20456 3409 171 169 165
8248 20456 3425 172 171 167
8496 20456 3285 162 161 158
8574 20456 3219 161 160 157
8656 20456 3145 163 162 157
8574 20347 3145 161 161 157
8547 20315 3145 161 161 157
8574 20315 3123 161 161 157
8434 20392 3285 163 163 159
8322 20315 3285 172 171 167
8434 20315 3228 164 163 159
8293 20300 3285 174 174 170
8293 20315 3297 174 174 169
8434 20201 3145 164 162 158
8381 20175 3145 168 167 162
8434 20175 3124 164 162 158
8293 20175 3174 175 176 171
8293 20141 3145 176 177 171
9760 20456 2584 148 144 140
9554 20478 2864 173 167 165
9554 20456 2847 172 166 164
9523 20456 2864 176 170 168
9414 20456 2905 180 177 174
9414 20359 2864 177 174 170
9274 20456 2939 181 178 174
9414 20315 2842 174 170 165
9365 20315 2864 178 175 170
9274 20249 2864 178 175 171
9274 20315 2895 180 177 174
9695 20459 2724 151 145 143
9691 20456 2724 151 145 143
9695 20456 2717 150 144 142
9695 20406 2584 147 143 139
9554 20321 2724 158 152 148
9549 20315 2724 158 152 148
9554 20315 2709 156 150 146
9593 20315 2584 144 140 135
9554 20275 2584 143 138 132
9274 20175 2822 172 167 163
9414 20175 2699 154 146 140
9414 20190 2724 158 149 144
9399 20175 2724 158 149 144
9469 20175 2584 140 134 127
9284 20035 2724 147 139 135
9274 20035 2731 149 140 136
9274 20014 2724 146 137 133
9414 20078 2584 135 129 125
9391 20035 2584 133 128 125
9746 20456 2444 138 129 123
9695 20427 2444 138 129 124
9695 20456 2419 138 129 125
9554 20464 2304 131 126 123
9554 20456 2322 132 127 124
9536 20456 2304 132 127 123
9554 20315 2442 135 126 126
9559 20315 2444 135 126 126
9554 20309 2444 135 126 126
9414 20374 2304 130 125 122
9345 20315 2304 126 121 120
9414 20315 2363 130 124 121
9274 20385 2164 131 126 123
9414 20456 2171 123 119 118
9409 20456 2164 123 119 118
9414 20458 2164 123 119 118
9274 20315 2252 132 127 126
9472 20175 2444 127 122 120
9414 20175 2413 130 124 122
9274 20184 2304 127 123 122
9274 20175 2308 127 123 122
9270 20175 2304 126 122 121
9414 20035 2503 130 125 122
9433 20035 2444 128 123 120
9414 20035 2433 130 125 122
9414 19991 2444 130 124 121
9274 20035 2341 135 131 126
9219 20035 2304 135 130 126
9327 19895 2584 126 121 118
9274 19895 2659 130 124 121
9274 19828 2584 125 119 116
9274 19895 2364 142 135 129
9374 19895 2444 132 126 122
9274 19755 2444 141 133 126
8994 20456 2987 176 175 170
9134 20456 2960 175 174 169
8994 20315 2924 174 173 168
9134 20315 2915 176 174 169
8854 20456 3018 167 166 161
8913 20456 3005 171 170 165
8854 20430 3005 168 167 162
8714 20315 3011 164 164 159
8714 20303 3005 165 164 159
8725 20315 3005 165 165 160
8854 20315 2943 173 171 166
9134 20175 2857 178 175 171
9134 20191 2864 178 176 171
8994 20179 2864 173 171 165
8994 20175 2863 172 170 164
8975 20175 2864 173 171 165
8854 20175 2874 176 174 167
8854 20155 2864 176 174 167
8714 20175 2938 165 163 159
8714 20039 2864 164 162 157
8710 20035 2864 164 162 157
8714 20035 2863 164 161 156
9134 20035 2778 164 159 154
8994 20035 2794 164 160 155
8854 20035 2810 168 165 160
8626 20175 3005 163 162 159
8574 20123 3005 163 162 158
8574 20175 3042 162 161 158
8574 20035 2940 163 162 157
8434 20035 3006 165 164 160
8434 20034 3005 165 164 160
8436 20035 3005 164 163 159
8293 19975 3005 175 175 170
8293 20035 3054 176 176 171
9134 20315 2145 130 126 122
9134 20304 2164 126 123 119
9149 20315 2164 126 123 119
9134 20175 2234 136 130 126
8994 20175 2191 152 145 138
8994 20221 2164 150 143 135
8994 20035 2232 152 143 138
9134 20035 2271 135 129 126
8931 20175 2164 155 147 140
8854 20175 2112 160 152 147
8854 20120 2164 159 151 147
8714 20175 2069 153 144 139
8714 20035 2207 158 151 146
8854 20035 2206 154 147 145
8714 20093 2164 160 152 146
8293 19974 2304 154 148 143
8574 20175 2054 152 145 138
8574 20035 2213 156 149 146
8574 20090 2164 156 149 144
8293 20103 2164 147 139 134
8434 20105 2164 150 142 137
8434 20035 2234 149 141 136
8293 20035 2247 147 141 136
9136 19895 2724 144 137 133
9134 19894 2724 144 137 133
9134 19895 2725 145 138 134
8994 19895 2740 150 144 139
8994 19863 2724 146 140 135
8994 19755 2632 131 124 119
9172 19755 2584 124 118 115
9134 19755 2612 127 120 117
9134 19732 2584 126 119 116
8854 19853 2724 148 142 137
8854 19895 2752 153 146 142
8714 19895 2778 159 154 150
8714 19830 2724 151 146 142
8854 19755 2647 137 130 125
8714 19755 2664 142 137 131
8994 19710 2584 128 120 116
8714 19615 2633 148 138 132
8862 19615 2584 137 129 120
8854 19608 2584 137 129 120
8854 19615 2587 138 130 121
8854 19615 2573 138 130 121
8714 19557 2584 137 127 119
8574 19937 2864 163 162 157
8491 19895 2864 164 164 158
8574 19895 2831 162 161 155
8434 19895 2887 166 166 159
8434 19874 2864 165 165 158
8293 19895 2932 172 172 167
8293 19825 2864 167 166 161
8574 19809 2724 159 155 150
8574 19755 2666 149 142 137
8434 19784 2724 157 154 149
8434 19755 2693 154 150 145
8339 19755 2724 157 154 149
8293 19739 2724 155 152 147
8293 19755 2754 158 156 151
8574 19615 2632 146 137 130
8574 19558 2584 140 130 122
8293 19615 2642 147 137 132
8434 19615 2562 147 136 128
8434 19615 2616 145 135 127
8293 19570 2584 150 139 132
8434 19583 2584 143 131 124
9134 19870 2304 149 140 133
9177 19895 2304 149 141 133
8994 19848 2304 149 140 133
8994 19755 2378 145 137 129
9134 19755 2393 143 134 128
8714 19864 2304 165 154 147
8854 19755 2376 147 137 129
8854 19837 2304 158 147 139
8714 19755 2390 156 145 138
8994 19895 2273 151 141 135
9134 19895 2293 149 140 133
8714 19895 2276 161 151 145
8854 19895 2268 157 147 140
8994 19649 2444 145 136 128
9134 19700 2444 142 133 126
8714 19679 2444 148 138 131
8714 19615 2530 142 132 124
8854 19656 2444 144 134 127
8610 19895 2304 162 154 147
8574 19895 2313 160 153 146
8574 19907 2304 161 154 148
8574 19755 2395 160 151 145
8434 19944 2304 156 150 143
8434 19895 2342 157 151 143
8293 19895 2364 155 150 145
8434 19722 2444 163 154 147
8293 19761 2444 168 161 157
8293 19755 2453 167 160 156
8306 19755 2444 168 161 156
8434 19755 2408 161 154 147
8574 19615 2525 145 134 126
8574 19685 2444 155 144 137
8293 19615 2556 153 142 136
8293 19054 2061 159 149 142
8293 18774 2091 137 130 125
8293 18914 2083 146 133 127
8293 18634 2092 173 172 166
8293 18494 2093 169 165 157
12216 20461 2024 186 180 177
12216 20456 2019 186 180 177
12076 20456 2010 185 178 173
12076 20474 2024 185 178 173
12216 20315 1900 177 172 170
12216 20295 1884 176 171 168
12076 20294 1884 180 175 173
12076 20315 1901 181 177 174
11936 20456 1989 181 173 169
11796 20456 1950 180 174 172
11796 20357 1884 184 177 174
11936 20311 1884 187 181 176
11936 20315 1887 188 181 176
11922 20315 1884 187 180 175
11796 20315 1854 185 178 175
12076 20175 1793 179 174 170
12216 20175 1793 180 175 172
12076 20097 1744 181 175 171
12216 20099 1744 178 172 167
12216 20035 1703 176 168 163
12076 20035 1706 182 175 172
11936 20110 1744 182 177 173
11936 20175 1787 182 178 174
11796 20175 1764 183 177 172
11796 20140 1744 183 177 172
11796 20035 1683 183 179 174
11936 20035 1696 183 179 173
11656 20427 1884 179 176 175
11656 20456 1902 178 175 174
11605 20456 1884 179 177 175
11656 20315 1811 185 180 176
11516 20456 1854 181 180 177
11376 20456 1822 181 178 177
11516 20315 1769 185 181 177
11408 20315 1744 180 177 176
11516 20264 1744 184 179 175
11376 20327 1744 179 176 176
11376 20315 1737 179 176 175
11656 20198 1744 182 176 170
11656 20175 1731 182 175 169
11708 20175 1744 182 175 170
11656 20035 1657 183 177 171
11516 20175 1700 181 174 170
11376 20175 1667 181 178 174
11426 20035 1603 180 175 169
11516 20035 1626 182 175 169
11516 19996 1603 182 176 171
11376 20057 1603 180 175 170
11376 20035 1592 179 175 170
12216 19895 1614 173 162 156
12216 19879 1603 173 162 156
12076 19866 1603 172 164 159
12076 19895 1621 173 164 160
12076 19755 1536 171 161 156
11936 19874 1603 177 170 167
11936 19895 1615 178 171 168
11816 19895 1603 182 178 174
11796 19895 1602 182 178 174
11796 19899 1603 183 179 174
11656 19895 1577 183 179 174
11656 19943 1603 182 177 173
11516 19895 1548 184 180 175
12216 19755 1518 172 163 157
11936 19755 1535 171 162 156
11796 19755 1518 174 165 161
12216 19681 1463 177 169 164
12076 19615 1440 173 164 158
12076 19646 1463 173 164 158
12216 19615 1407 174 168 164
12216 19527 1323 157 152 149
12076 19475 1319 168 163 161
12076 19479 1323 168 163 161
12060 19475 1323 169 164 161
11936 19634 1463 172 162 156
11936 19615 1451 171 161 155
11796 19653 1463 171 161 156
11796 19615 1442 170 160 154
11796 19475 1369 171 161 156
11936 19475 1354 174 166 160
12216 19475 1273 153 147 145
11656 19755 1497 181 175 172
11376 19895 1520 184 177 171
11516 19755 1474 184 180 176
11457 19755 1463 184 179 175
11516 19733 1463 182 177 173
11376 19755 1450 185 179 173
11376 19784 1463 185 178 173
11656 19691 1463 177 169 165
11656 19615 1424 170 160 155
11656 19475 1360 168 159 153
11516 19615 1406 174 165 161
11376 19615 1389 184 178 174
11516 19475 1351 168 159 153
11376 19475 1336 171 161 158
11236 20456 1800 179 177 174
11236 20362 1744 178 176 173
11096 20385 1744 180 177 173
11096 20456 1787 181 179 176
11096 20315 1702 180 177 172
11236 20315 1717 178 176 173
10956 20393 1744 181 179 174
10956 20456 1782 183 182 177
10815 20392 1744 179 176 172
10815 20456 1780 182 178 173
10956 20315 1696 179 176 171
10815 20315 1700 174 173 170
11236 20103 1603 179 175 170
11236 20175 1642 181 175 170
11096 20130 1603 173 169 166
11096 20175 1626 173 169 166
11236 20035 1570 178 176 171
11096 20035 1558 172 168 165
10956 20175 1627 169 166 164
10956 20123 1603 169 166 163
10815 20175 1641 173 170 167
10956 20035 1562 169 165 161
10760 20035 1603 171 166 162
10815 20071 1603 171 167 163
10815 20035 1591 171 165 162
10675 20379 1744 180 176 171
10675 20456 1781 179 175 171
10535 20364 1744 177 171 166
10535 20456 1782 176 174 170
10675 20315 1713 179 175 170
10535 20315 1724 178 169 163
10395 20357 1744 173 166 161
10395 20456 1778 176 172 168
10255 20456 1770 178 172 167
10395 20315 1731 173 164 158
10255 20334 1744 170 163 159
10255 20315 1740 169 162 159
10675 20175 1664 174 171 168
10535 20175 1684 175 172 167
10535 20035 1654 171 162 156
10675 20035 1623 171 166 162
10395 20175 1697 180 172 166
10255 20175 1711 171 165 158
10395 20035 1676 164 158 153
10255 20035 1698 165 159 155
10815 19895 1537 173 165 160
10675 19967 1603 169 164 160
10675 19895 1582 167 162 158
10607 19895 1603 167 161 157
10535 19895 1625 167 161 157
10535 19827 1603 171 166 162
10535 19755 1577 176 172 168
10255 19895 1687 161 151 144
10395 19895 1655 162 155 150
10255 19755 1668 172 169 162
10395 19755 1624 173 168 165
10460 19755 1603 175 170 166
10395 19699 1603 176 171 166
10395 19615 1565 176 172 167
10255 19615 1620 176 173 168
10301 19615 1603 177 173 168
10255 19580 1603 176 173 167
10255 19475 1545 173 169 164
11236 19895 1499 181 176 171
11096 19895 1488 174 170 167
11096 19847 1463 175 171 168
11236 19827 1463 182 177 171
11236 19755 1429 182 177 171
11096 19755 1418 177 172 167
10956 19895 1499 170 167 163
10956 19823 1463 170 166 162
10956 19755 1430 170 166 162
10831 19755 1463 171 167 164
10815 19755 1468 172 168 165
10815 19745 1463 171 167 164
11236 19615 1374 185 182 177
11096 19615 1360 181 174 170
11261 19475 1323 178 171 167
11236 19475 1321 179 172 168
11236 19481 1323 180 173 169
11096 19502 1323 179 173 169
11096 19475 1315 177 173 168
10956 19615 1370 174 167 163
10815 19615 1400 170 167 164
10956 19485 1323 175 171 167
10956 19475 1320 175 171 167
10932 19475 1323 175 171 167
10815 19475 1342 172 168 165
10675 19755 1523 174 171 167
10675 19636 1463 173 170 167
10675 19615 1452 173 170 166
10648 19615 1463 173 170 167
10535 19615 1509 176 173 168
10535 19475 1424 175 171 166
10535 19537 1463 175 171 166
10675 19475 1376 174 171 166
10439 19475 1463 173 170 165
10395 19475 1482 173 170 165
11796 19405 1323 173 166 161
11936 19437 1323 172 166 160
12216 19385 1183 152 148 146
12076 19360 1183 146 143 139
12076 19335 1156 148 146 142
12216 19335 1138 160 156 155
12076 19231 1043 158 150 147
11936 19335 1222 154 150 147
12013 19335 1183 146 143 139
11796 19335 1272 169 164 160
11796 19236 1183 150 145 141
11936 19302 1183 147 142 139
11936 19213 1043 154 150 147
12180 19195 1043 154 144 143
12216 19195 1055 154 144 143
12216 19113 1043 148 139 139
12216 19054 1035 145 136 137
12232 19054 1043 143 134 135
11936 19195 1024 159 155 152
11796 19195 1119 146 142 138
11796 19154 1043 147 142 139
11888 19195 1043 152 148 144
11656 19386 1323 171 161 154
11656 19335 1301 171 161 155
11516 19394 1323 169 160 154
11516 19335 1303 169 160 154
11376 19437 1323 170 161 158
11376 19335 1289 169 161 156
11712 19195 1183 155 149 146
11656 19195 1209 164 157 154
11656 19165 1183 159 152 149
11656 19078 1043 146 141 138
11616 19054 1043 147 142 139
11516 19121 1183 164 157 153
11516 19195 1236 170 161 156
11376 19195 1244 170 161 155
11392 19054 1183 166 161 156
11376 19046 1183 166 161 156
11376 19054 1189 167 162 157
11516 18995 1043 149 143 141
11516 19054 1125 155 150 147
12231 18914 1043 131 120 117
12216 18914 1037 131 120 117
12216 18774 1028 146 136 131
12274 18774 1043 154 146 141
11376 18923 1043 153 147 143
11353 18914 1043 154 148 144
10815 19428 1323 173 170 166
10815 19335 1290 175 172 168
11096 19335 1276 177 172 168
11236 19335 1277 171 162 158
10956 19335 1278 177 172 169
11096 19195 1237 174 165 162
11236 19195 1244 171 162 158
11236 19001 1183 170 163 159
11236 19054 1206 173 165 161
11096 19017 1183 173 165 161
11096 19054 1198 174 166 162
10956 19195 1235 176 172 168
10815 19195 1236 176 173 169
10956 19035 1183 173 168 164
10956 19054 1190 174 168 164
10856 19054 1183 174 170 166
10815 19054 1180 174 170 166
10815 19061 1183 175 171 167
10675 19335 1304 175 171 167
10675 19376 1323 174 171 167
10576 19335 1323 172 169 165
10535 19335 1333 172 168 164
10535 19319 1323 172 168 164
10395 19449 1463 173 169 164
10255 19335 1442 174 170 167
10255 19362 1463 175 171 167
10395 19335 1384 170 166 162
10395 19251 1323 169 166 162
10395 19195 1289 170 167 163
10261 19195 1323 167 165 161
10255 19192 1323 167 165 161
10255 19195 1325 167 165 161
10535 19195 1260 173 171 167
10675 19195 1242 176 171 167
10675 19056 1183 177 173 168
10675 19054 1182 177 173 168
10667 19054 1183 177 174 169
10535 19017 1183 177 174 169
10535 19054 1195 176 173 168
10395 18967 1183 177 174 168
10395 19054 1209 176 173 168
10255 19054 1234 180 176 171
11236 18871 1043 157 151 147
11236 18914 1114 161 156 152
11096 18914 1127 167 161 156
11096 18828 1043 159 153 150
10815 18914 1133 172 166 163
10956 18914 1130 169 164 160
10956 18774 1036 160 155 150
10956 18779 1043 161 156 151
10943 18774 1043 161 155 150
10815 18774 1077 164 155 150
10815 18710 1043 160 153 149
10675 18914 1142 174 170 165
10535 18914 1154 175 171 166
10535 18774 1134 162 154 150
10675 18774 1107 160 150 145
10395 18914 1170 176 173 167
10274 18914 1183 181 180 173
10255 18914 1186 182 181 174
10255 18889 1183 182 180 173
10395 18774 1155 168 164 160
10255 18774 1174 181 174 168
10729 18634 1043 158 152 147
10675 18634 1069 159 152 146
10675 18593 1043 157 150 145
10535 18634 1124 156 147 144
10568 18494 1043 152 146 143
10535 18494 1067 154 149 145
10535 18472 1043 151 146 142
10255 18569 1183 161 153 149
10255 18634 1177 162 155 151
10395 18634 1151 158 149 145
10255 18494 1191 159 151 147
10280 18494 1183 160 151 147
10395 18494 1139 161 154 149
12076 19054 956 152 144 139
12076 19195 1014 158 150 148
11796 19074 903 165 159 159
11936 19066 903 156 146 144
11961 19054 903 154 144 141
11936 19054 895 155 145 143
11796 19054 886 166 160 160
11656 19054 983 155 150 147
11656 19024 903 165 159 157
11736 19054 903 166 160 159
11516 18963 903 158 153 150
12076 18774 977 135 124 120
12076 18914 957 144 134 132
11992 18914 903 148 138 133
11936 18914 872 150 141 136
11796 18914 809 156 145 144
11936 18724 903 141 132 128
11948 18774 903 142 133 130
11796 18774 784 150 139 133
11936 18774 895 143 134 131
12216 18634 1012 159 153 148
12076 18634 970 149 140 135
12076 18494 950 163 156 153
12216 18494 998 161 155 153
11916 18634 903 139 129 124
11936 18634 914 138 128 123
11796 18634 829 144 135 130
11936 18494 905 144 134 128
11936 18481 903 146 137 131
11932 18494 903 143 133 127
11796 18494 842 142 133 128
11408 18914 903 155 149 147
11376 18899 903 154 148 146
11376 18914 999 154 148 144
11516 18914 794 172 170 166
11656 18911 763 166 160 159
11656 18914 765 166 160 159
11764 18774 763 151 139 134
11656 18774 710 157 147 144
11516 18896 763 173 170 166
11376 18847 763 167 161 160
11376 18774 686 173 169 168
11516 18774 680 167 159 158
11376 18704 623 166 161 159
11717 18634 763 146 136 130
11656 18634 712 148 138 132
11527 18634 623 152 140 136
11675 18494 763 144 136 130
11656 18494 746 144 136 129
11522 18494 623 146 135 128
11516 18649 623 155 143 140
11516 18634 615 153 141 138
11376 18634 572 161 154 153
11516 18494 618 147 135 128
11516 18472 623 147 135 128
11376 18494 529 155 145 143
11265 18494 483 163 156 156
11236 18838 903 153 149 145
11083 18774 903 156 151 147
11096 18780 903 156 151 148
11096 18774 888 155 150 147
10956 18699 903 154 149 144
11236 18790 763 162 157 154
11236 18774 741 164 160 157
11201 18774 763 160 155 152
11096 18725 763 154 150 147
11236 18693 623 174 168 166
10855 18634 903 152 148 143
10815 18634 954 154 149 145
10815 18612 903 151 147 143
11236 18634 572 174 168 167
11096 18634 609 173 173 168
11096 18649 623 172 171 166
11066 18634 623 171 171 166
10956 18634 737 152 148 145
10956 18648 763 149 145 142
10933 18634 763 148 144 141
10815 18573 763 146 142 139
10956 18584 623 167 164 160
10815 18494 566 169 166 162
10815 18524 623 163 160 155
10675 18527 903 149 144 140
10625 18494 903 149 143 139
10535 18440 903 148 142 138
10675 18501 763 143 139 136
10675 18494 738 145 141 138
10662 18494 763 143 139 136
10675 18466 623 159 155 151
10745 18494 623 161 158 154
11236 18494 472 165 158 158
11236 18508 483 166 159 159
11096 18494 461 175 170 167
11096 18517 483 176 171 168
10991 18494 483 176 173 169
10956 18484 483 174 173 168
10956 18494 495 175 174 169
10815 18451 483 174 171 167
10115 20456 1766 175 169 163
10115 20315 1742 172 164 158
10115 20324 1744 172 165 159
9975 20456 1776 175 170 166
9835 20456 1791 178 174 170
9975 20320 1744 170 163 158
9975 20315 1743 170 163 158
9835 20317 1744 169 163 158
9835 20315 1743 169 163 158
10115 20035 1716 172 168 164
10115 20175 1724 167 162 158
9975 20175 1730 170 166 160
9835 20175 1728 176 168 163
9975 20035 1723 173 164 157
9835 20035 1722 168 162 156
9695 20456 1810 177 171 165
9554 20456 1827 173 166 161
9357 20456 2024 163 158 151
9414 20476 2024 164 158 152
9274 20421 2024 157 153 148
9414 20456 1884 167 160 154
9411 20456 1884 167 160 154
9414 20456 1882 167 160 154
9274 20403 1884 169 161 154
9695 20315 1734 170 165 160
9695 20336 1744 171 166 161
9554 20315 1729 171 168 163
9554 20340 1744 172 169 164
9414 20315 1736 174 169 165
9414 20326 1744 174 169 165
9345 20315 1744 171 164 160
9274 20291 1744 168 159 154
9274 20315 1755 168 159 155
9554 20175 1717 167 162 158
9695 20175 1719 172 163 157
9695 20035 1719 168 163 156
9554 20035 1722 168 158 153
9414 20175 1715 168 163 157
9274 20175 1707 164 156 149
9274 20035 1708 165 155 148
9414 20035 1717 166 157 151
10115 19895 1709 159 149 142
10115 19755 1707 172 162 155
9975 19895 1723 162 154 150
