ply
format ascii 1.0
element vertex 1220
property float x
property float y
property float z
property uchar red
property uchar green
property uchar blue
end_header
-1.921065 -0.841329 3.250000 120 105 112
-1.970896 -0.766310 2.800000 164 150 140
-1.921065 -0.766310 2.839247 154 139 132
-1.921065 -0.799547 2.850000 176 174 163
-1.921065 -0.796782 2.900000 131 138 147
-1.921065 -0.787762 2.950000 158 142 142
-1.921065 -0.766310 3.074389 216 202 198
-1.921065 -0.727214 2.800000 127 114 112
-1.921065 -0.716310 2.790488 127 114 112
-1.921065 -0.740901 3.100000 60 47 68
-1.921065 -0.716310 3.124591 60 47 68
-1.921065 -0.703467 2.800000 127 114 112
-1.921065 -0.666310 2.828576 127 105 105
-1.921065 -0.666310 3.124590 79 40 45
-1.921065 -0.621841 2.850000 54 33 44
-1.956632 -0.616310 2.850000 58 35 45
-1.921065 -0.616310 2.852669 54 33 44
-1.921065 -0.641187 3.150000 127 44 64
-1.945941 -0.616310 3.150000 127 44 64
-1.921065 -0.616310 3.174876 127 44 64
-1.962579 -0.566310 2.500000 74 70 75
-1.965239 -0.566310 2.550000 94 68 79
-1.967501 -0.566310 2.600000 103 86 71
-1.921065 -0.566310 2.877522 84 26 35
-1.921065 -0.566310 3.174672 108 33 40
-1.921065 -0.516638 2.350000 82 82 92
-1.921065 -0.516310 2.349672 82 82 92
-1.942143 -0.516310 2.400000 94 63 74
-1.921065 -0.516310 2.351587 82 82 92
-1.953406 -0.516310 2.450000 90 81 84
-1.958998 -0.516310 2.500000 121 99 112
-1.962827 -0.516310 2.550000 96 83 81
-1.968969 -0.516310 2.600000 80 68 67
-1.921065 -0.523107 2.900000 90 23 33
-1.921065 -0.516310 2.903526 90 23 33
-1.921065 -0.516310 3.174336 117 28 44
-1.923486 -0.466310 2.250000 85 83 95
-1.921065 -0.468732 2.250000 85 83 95
-1.921065 -0.466310 2.247579 85 83 95
-1.928040 -0.466310 2.300000 83 70 78
-1.921065 -0.466310 2.274023 85 83 95
-1.921065 -0.514456 2.350000 82 82 92
-1.942549 -0.466310 2.350000 111 90 103
-1.949330 -0.466310 2.400000 107 90 96
-1.953580 -0.466310 2.450000 91 80 80
-1.959931 -0.466310 2.500000 78 65 72
-1.964070 -0.466310 2.550000 75 27 38
-1.968283 -0.466310 2.600000 83 25 32
-1.921065 -0.466310 2.929062 102 24 32
-1.921065 -0.490996 3.200000 105 27 35
-1.921065 -0.466310 3.224686 105 27 35
-1.924505 -0.416310 2.150000 102 97 109
-1.921065 -0.419751 2.150000 102 97 109
-1.921065 -0.416310 2.146559 102 97 109
-1.921065 -0.418891 2.200000 81 73 82
-1.921065 -0.449421 2.250000 85 83 95
-1.933279 -0.416310 2.250000 107 85 91
-1.921065 -0.416310 2.217649 81 73 82
-1.940253 -0.416310 2.300000 87 80 87
-1.944968 -0.416310 2.350000 82 65 74
-1.949974 -0.416310 2.400000 80 57 65
-1.954520 -0.416310 2.450000 81 25 36
-1.958773 -0.416310 2.500000 90 27 33
-1.963620 -0.416310 2.550000 96 42 45
-1.968319 -0.416310 2.600000 92 20 32
-1.921065 -0.425509 2.950000 104 26 30
-1.921065 -0.416310 2.954631 104 26 30
-1.921065 -0.416310 3.224437 115 26 38
-1.921065 -0.371685 2.100000 76 72 84
-1.921065 -0.366310 2.054406 82 77 87
-1.921065 -0.385546 2.150000 105 79 90
-1.926583 -0.366310 2.150000 105 79 90
-1.921065 -0.366310 2.136137 105 79 90
-1.921065 -0.395878 2.200000 81 73 82
-1.932828 -0.366310 2.200000 114 88 101
-1.936783 -0.366310 2.250000 83 56 66
-1.941153 -0.366310 2.300000 82 28 36
-1.945473 -0.366310 2.350000 95 24 30
-1.950490 -0.366310 2.400000 95 23 32
-1.954865 -0.366310 2.450000 103 27 40
-1.959382 -0.366310 2.500000 103 18 32
-1.964276 -0.366310 2.550000 104 22 31
-1.968722 -0.366310 2.600000 104 21 29
-1.921065 -0.366310 2.979995 105 26 32
-1.921065 -0.391074 3.250000 90 23 29
-1.947290 -0.366310 3.300000 64 14 17
-1.921065 -0.366310 3.274764 90 23 29
-1.921065 -0.326782 2.000000 94 84 90
-1.921065 -0.316310 1.986073 94 84 90
-1.921065 -0.354889 2.050000 82 77 87
-1.923596 -0.316310 2.100000 96 80 78
-1.921065 -0.316310 2.084299 96 80 78
-1.921065 -0.322810 2.100000 96 80 78
-1.928404 -0.316310 2.150000 87 61 71
-1.932395 -0.316310 2.200000 85 28 35
-1.937731 -0.316310 2.250000 102 20 28
-1.941530 -0.316310 2.300000 107 22 30
-1.945927 -0.316310 2.350000 104 21 30
-1.950765 -0.316310 2.400000 108 23 31
-1.955264 -0.316310 2.450000 108 21 30
-1.959984 -0.316310 2.500000 109 19 30
-1.964253 -0.316310 2.550000 109 21 29
-1.969152 -0.316310 2.600000 107 22 30
-1.921065 -0.324575 3.000000 106 27 29
-1.921065 -0.316310 3.003959 106 27 29
-1.921065 -0.316310 3.274280 110 37 45
-1.954198 -0.266310 1.900000 157 149 144
-1.921065 -0.278478 1.900000 95 95 111
-1.921065 -0.266310 1.882925 95 95 111
-1.921065 -0.279416 1.950000 79 71 76
-1.925078 -0.266310 2.100000 82 30 38
-1.921065 -0.266310 2.068063 88 73 78
-1.928887 -0.266310 2.150000 105 25 29
-1.933330 -0.266310 2.200000 107 42 46
-1.937540 -0.266310 2.250000 110 24 33
-1.942082 -0.266310 2.300000 112 21 29
-1.946754 -0.266310 2.350000 112 20 29
-1.951086 -0.266310 2.400000 114 23 31
-1.955522 -0.266310 2.450000 113 22 29
-1.960676 -0.266310 2.500000 113 23 28
-1.964707 -0.266310 2.550000 113 20 28
-1.969482 -0.266310 2.600000 111 20 28
-1.921065 -0.266310 3.032075 139 40 58
-1.921065 -0.291013 3.300000 94 24 29
-1.921065 -0.266310 3.324703 94 24 29
-1.950719 -0.216310 1.800000 204 197 197
-1.921065 -0.231229 1.800000 80 80 98
-1.921065 -0.216310 1.783714 80 80 98
-1.921065 -0.236119 1.850000 82 75 79
-1.924808 -0.216310 2.100000 105 46 46
-1.921065 -0.216310 2.059226 100 22 30
-1.928750 -0.216310 2.150000 106 21 34
-1.933482 -0.216310 2.200000 110 22 30
-1.938320 -0.216310 2.250000 115 24 29
-1.942626 -0.216310 2.300000 118 21 28
-1.947175 -0.216310 2.350000 117 24 28
-1.951327 -0.216310 2.400000 120 23 28
-1.955818 -0.216310 2.450000 117 21 28
-1.960236 -0.216310 2.500000 117 23 28
-1.964765 -0.216310 2.550000 116 23 28
-1.969105 -0.216310 2.600000 116 23 26
-1.921065 -0.230969 3.050000 149 39 57
-1.921065 -0.216310 3.057435 149 39 57
-1.921065 -0.216310 3.324359 111 47 52
-1.948700 -0.166310 1.700000 191 170 166
-1.921065 -0.183575 1.700000 118 116 121
-1.921065 -0.166310 1.681999 118 116 121
-1.921065 -0.186259 1.750000 94 87 91
-1.924783 -0.166310 2.100000 114 22 31
-1.921065 -0.166310 2.056708 107 22 35
-1.929134 -0.166310 2.150000 116 22 29
-1.934024 -0.166310 2.200000 117 24 27
-1.938746 -0.166310 2.250000 117 22 27
-1.943130 -0.166310 2.300000 121 22 29
-1.947223 -0.166310 2.350000 118 23 30
-1.951922 -0.166310 2.400000 122 25 28
-1.955856 -0.166310 2.450000 120 24 28
-1.960172 -0.166310 2.500000 119 23 30
-1.964997 -0.166310 2.550000 119 23 28
-1.969438 -0.166310 2.600000 121 22 29
-1.921065 -0.166310 3.083388 139 57 65
-1.921065 -0.191206 3.350000 87 32 29
-1.921065 -0.166310 3.374896 87 32 29
-1.955698 -0.116310 1.600000 127 109 100
-1.921065 -0.134649 1.600000 131 111 103
-1.921065 -0.116310 1.578872 131 111 103
-1.921065 -0.139639 1.650000 106 92 94
-1.925428 -0.116310 2.100000 116 23 30
-1.921065 -0.116310 2.051833 116 23 30
-1.929579 -0.116310 2.150000 118 25 30
-1.934134 -0.116310 2.200000 120 23 28
-1.938801 -0.116310 2.250000 119 23 28
-1.943164 -0.116310 2.300000 120 25 29
-1.947834 -0.116310 2.350000 121 24 28
-1.951972 -0.116310 2.400000 122 25 28
-1.955714 -0.116310 2.450000 121 25 27
-1.960017 -0.116310 2.500000 120 25 26
-1.964629 -0.116310 2.550000 120 25 27
-1.968856 -0.116310 2.600000 134 27 40
-1.921065 -0.131766 3.100000 115 64 51
-1.921065 -0.116310 3.107341 115 64 51
-1.921065 -0.116310 3.374486 95 56 60
-1.921065 -0.069814 1.450000 71 69 76
-1.921065 -0.066310 1.436745 71 69 76
-1.921065 -0.083840 1.500000 71 67 75
-1.921065 -0.094447 1.550000 145 119 115
-1.925290 -0.066310 2.100000 119 25 29
-1.921065 -0.066310 2.051852 118 25 30
-1.929575 -0.066310 2.150000 120 27 28
-1.934254 -0.066310 2.200000 122 25 29
-1.939078 -0.066310 2.250000 121 27 28
-1.943307 -0.066310 2.300000 120 25 28
-1.947908 -0.066310 2.350000 121 25 27
-1.952268 -0.066310 2.400000 121 22 27
-1.956161 -0.066310 2.450000 122 25 28
-1.959909 -0.066310 2.500000 120 25 27
-1.964814 -0.066310 2.550000 120 26 27
-1.968785 -0.066310 2.600000 124 25 29
-1.921065 -0.066310 3.145333 122 89 94
-1.921065 -0.090843 3.400000 97 91 98
-1.921065 -0.066310 3.424534 97 91 98
-1.921065 -0.021823 1.350000 73 71 79
-1.921065 -0.016310 1.337921 73 71 79
-1.921065 -0.046892 1.400000 68 66 75
-1.925355 -0.016310 2.100000 122 30 31
-1.921065 -0.016310 2.051356 122 29 30
-1.929623 -0.016310 2.150000 122 31 33
-1.934521 -0.016310 2.200000 122 31 31
-1.938929 -0.016310 2.250000 122 32 34
-1.943441 -0.016310 2.300000 121 33 33
-1.947992 -0.016310 2.350000 121 34 35
-1.952580 -0.016310 2.400000 120 35 35
-1.957213 -0.016310 2.450000 123 35 37
-1.960529 -0.016310 2.500000 122 39 39
-1.964967 -0.016310 2.550000 121 38 40
-1.969778 -0.016310 2.600000 122 38 39
-1.921065 -0.060109 3.150000 122 89 94
-1.921065 -0.016310 3.182900 127 125 127
-1.921065 -0.041303 3.450000 84 92 103
-1.921065 -0.016310 3.474993 84 92 103
-1.921065 0.027202 1.250000 92 94 101
-1.921065 0.033690 1.241894 92 94 101
-1.921065 0.003158 1.300000 78 75 83
-1.921386 0.033690 2.050000 125 34 37
-1.921065 0.033690 2.046980 125 34 37
-1.921065 -0.002722 2.050000 122 29 30
-1.925475 0.033690 2.100000 125 35 39
-1.929856 0.033690 2.150000 124 35 37
-1.934890 0.033690 2.200000 124 35 40
-1.939625 0.033690 2.250000 124 37 39
-1.944394 0.033690 2.300000 125 36 41
-1.948610 0.033690 2.350000 125 36 40
-1.953142 0.033690 2.400000 127 36 42
-1.957666 0.033690 2.450000 127 38 43
-1.961263 0.033690 2.500000 127 40 43
-1.965356 0.033690 2.550000 125 47 44
-1.969452 0.033690 2.600000 123 50 49
-1.921065 0.022984 3.200000 135 130 133
-1.921065 0.033690 3.205217 135 130 133
-1.921065 0.033690 3.474189 118 117 115
-1.921065 0.083690 1.236944 103 104 116
-1.921065 0.072852 2.050000 126 35 39
-1.926083 0.083690 2.100000 124 35 39
-1.921065 0.083690 2.050851 126 35 39
-1.930515 0.083690 2.150000 123 36 41
-1.934885 0.083690 2.200000 122 35 39
-1.940010 0.083690 2.250000 123 38 42
-1.944962 0.083690 2.300000 123 36 43
-1.949270 0.083690 2.350000 123 35 44
-1.953745 0.083690 2.400000 123 37 44
-1.957996 0.083690 2.450000 124 38 48
-1.962211 0.083690 2.500000 128 43 52
-1.965199 0.083690 2.550000 128 46 55
-1.969839 0.083690 2.600000 128 56 62
-1.921065 0.074573 3.150000 133 117 117
-1.921065 0.083690 3.131762 133 117 117
-1.921065 0.038932 3.200000 135 130 133
-1.921065 0.083690 3.474480 114 116 112
-1.921065 0.095224 1.250000 103 104 116
-1.921065 0.112255 1.300000 68 55 74
-1.921065 0.126541 1.350000 83 43 66
-1.934482 0.133690 1.350000 83 43 66
-1.921065 0.133690 1.360675 83 43 66
-1.921096 0.133690 2.050000 126 36 38
-1.921065 0.133690 2.049695 126 36 38
-1.921065 0.120606 2.050000 126 36 38
-1.925965 0.133690 2.100000 126 35 39
-1.930738 0.133690 2.150000 126 35 37
-1.935144 0.133690 2.200000 122 36 40
-1.940264 0.133690 2.250000 120 36 40
-1.945256 0.133690 2.300000 119 38 40
-1.949756 0.133690 2.350000 119 35 39
-1.953870 0.133690 2.400000 118 36 40
-1.958200 0.133690 2.450000 119 42 44
-1.961951 0.133690 2.500000 119 49 51
-1.964404 0.133690 2.550000 120 56 58
-1.968715 0.133690 2.600000 120 62 67
-1.970222 0.133690 2.650000 122 69 73
-1.969053 0.133690 2.700000 120 54 67
-1.921065 0.131190 3.050000 144 109 97
-1.921065 0.133690 3.045731 144 109 97
-1.921065 0.100483 3.100000 133 114 118
-1.921065 0.133690 3.474567 106 118 128
-1.921065 0.183690 1.385997 112 46 68
-1.921149 0.183690 2.050000 126 36 39
-1.921065 0.183690 2.049159 126 36 39
-1.926244 0.183690 2.100000 125 36 38
-1.930889 0.183690 2.150000 124 35 40
-1.935122 0.183690 2.200000 123 39 40
-1.940537 0.183690 2.250000 120 41 44
-1.945542 0.183690 2.300000 119 49 49
-1.950076 0.183690 2.350000 120 38 41
-1.954496 0.183690 2.400000 118 44 45
-1.958072 0.183690 2.450000 119 51 54
-1.960319 0.183690 2.500000 121 59 62
-1.965192 0.183690 2.550000 121 68 68
-1.967295 0.183690 2.600000 122 60 66
-1.968538 0.183690 2.650000 118 59 67
-1.921065 0.180964 2.950000 134 127 122
-1.921065 0.183690 2.944648 134 127 122
-1.921065 0.156449 3.000000 148 124 112
-1.921065 0.183690 3.374249 109 121 130
-1.921065 0.157195 3.400000 115 127 136
-1.921065 0.158257 3.450000 106 118 128
-1.921065 0.212485 1.400000 128 50 68
-1.921065 0.233690 1.411601 128 50 68
-1.921065 0.194818 2.050000 126 36 39
-1.926140 0.233690 2.100000 125 38 40
-1.921065 0.233690 2.052660 125 35 38
-1.930802 0.233690 2.150000 125 39 40
-1.935067 0.233690 2.200000 124 55 55
-1.939998 0.233690 2.250000 123 55 57
-1.945439 0.233690 2.300000 119 57 58
-1.950096 0.233690 2.350000 120 52 55
-1.953014 0.233690 2.400000 117 54 57
-1.957265 0.233690 2.450000 118 62 68
-1.963475 0.233690 2.500000 118 67 71
-1.964607 0.233690 2.550000 117 64 70
-1.921065 0.209261 2.900000 136 124 122
-1.921065 0.233690 2.857677 130 125 122
-1.921065 0.233690 3.324955 98 101 107
-1.921065 0.207938 3.350000 109 121 130
-1.921065 0.283690 1.436932 146 56 72
-1.925989 0.283690 2.100000 127 42 46
-1.921065 0.283690 2.052930 123 36 39
-1.930228 0.283690 2.150000 123 58 59
-1.935037 0.283690 2.200000 126 57 59
-1.939364 0.283690 2.250000 121 59 64
-1.946313 0.283690 2.300000 126 55 58
-1.954444 0.283690 2.350000 118 55 60
-1.958870 0.283690 2.400000 117 63 67
-1.968505 0.283690 2.450000 116 71 73
-1.967149 0.283690 2.500000 113 75 85
-1.921065 0.263443 2.800000 133 128 124
-1.921065 0.283690 2.761476 127 132 133
-1.921065 0.237936 2.850000 130 125 122
-1.921065 0.283690 3.224705 96 99 108
-1.921065 0.257802 3.250000 117 126 137
-1.921065 0.258645 3.300000 98 101 107
-1.921065 0.309998 1.450000 143 53 72
-1.921065 0.333690 1.463390 143 53 72
-1.921213 0.333690 2.050000 124 56 56
-1.921065 0.333690 2.048680 124 56 56
-1.921065 0.317552 2.050000 124 56 56
-1.926650 0.333690 2.100000 124 61 62
-1.930743 0.333690 2.150000 123 60 63
-1.935171 0.333690 2.200000 124 64 72
-1.945616 0.333690 2.250000 119 63 67
-1.951563 0.333690 2.300000 123 62 69
-1.961745 0.333690 2.350000 120 65 67
-1.921065 0.317858 2.700000 118 128 134
-1.921065 0.333690 2.669517 115 118 125
-1.921065 0.289808 2.750000 127 132 133
-1.921065 0.333690 3.124648 91 96 108
-1.921065 0.307753 3.150000 110 119 128
-1.921065 0.308395 3.200000 96 99 108
-1.921065 0.383690 1.487243 154 57 73
-1.921203 0.383690 2.050000 127 57 60
-1.921065 0.383690 2.048654 127 57 60
-1.926071 0.383690 2.100000 123 58 63
-1.932641 0.383690 2.150000 123 64 69
-1.943232 0.383690 2.200000 122 68 72
-1.952035 0.383690 2.250000 124 65 69
-1.964226 0.383690 2.300000 121 69 71
-1.921065 0.370188 2.600000 112 116 124
-1.921065 0.383690 2.570478 114 120 127
-1.921065 0.344060 2.650000 115 118 125
-1.947658 0.383690 2.950000 127 116 113
-1.921065 0.383690 2.924321 122 107 111
-1.921065 0.356433 2.950000 134 116 104
-1.921065 0.356772 3.000000 131 115 107
-1.946619 0.383690 3.000000 113 119 135
-1.921065 0.357652 3.050000 145 137 135
-1.921065 0.358338 3.100000 91 96 108
-1.921065 0.412946 1.500000 146 55 73
-1.921065 0.433690 1.511078 146 55 73
-1.921065 0.388570 2.050000 127 57 60
-1.933342 0.433690 2.100000 120 66 72
-1.921065 0.433690 2.053875 122 66 71
-1.942110 0.433690 2.150000 121 75 78
-1.952795 0.433690 2.200000 121 66 69
-1.967427 0.433690 2.250000 119 74 79
-1.921065 0.420652 2.500000 115 119 125
-1.921065 0.433690 2.474067 109 114 118
-1.921065 0.394030 2.550000 114 120 127
-1.921065 0.433690 2.874681 106 94 97
-1.921065 0.408010 2.900000 122 107 111
-1.921065 0.483690 1.534311 156 65 78
-1.943258 0.483690 2.100000 110 85 93
-1.921065 0.483690 2.050642 109 82 87
-1.951424 0.483690 2.150000 118 74 91
-1.965122 0.483690 2.200000 108 89 91
-1.921065 0.472440 2.400000 113 119 125
-1.921065 0.483690 2.378700 113 119 125
-1.921065 0.446470 2.450000 109 114 118
-1.921065 0.483690 2.824578 83 76 81
-1.921065 0.458371 2.850000 106 94 97
-1.921065 0.519015 1.550000 139 78 92
-1.921065 0.533690 1.558117 139 78 92
-1.944351 0.533690 2.050000 120 116 123
-1.921065 0.533690 2.006424 126 101 105
-1.921065 0.484198 2.050000 109 82 87
-1.945635 0.533690 2.100000 133 135 144
-1.962200 0.533690 2.150000 107 112 126
-1.961562 0.533690 2.250000 112 114 123
-1.921065 0.533690 2.284792 108 116 126
-1.921065 0.525355 2.300000 108 116 126
-1.921065 0.498843 2.350000 104 108 115
-1.921065 0.533690 2.724670 117 128 145
-1.921065 0.507930 2.750000 108 109 125
-1.921065 0.508267 2.800000 83 76 81
-1.921065 0.583690 1.571242 138 73 89
-1.933034 0.583690 1.950000 124 125 133
-1.921065 0.583690 1.924923 118 90 99
-1.921065 0.555968 1.950000 115 69 75
-1.921065 0.541575 2.000000 126 101 105
-1.939648 0.583690 2.000000 140 141 149
-1.949517 0.583690 2.050000 132 131 136
-1.969487 0.583690 2.100000 120 120 126
-1.959546 0.583690 2.150000 129 131 135
-1.921065 0.581075 2.200000 113 120 131
-1.921065 0.583690 2.195735 113 120 131
-1.921065 0.551919 2.250000 102 108 114
-1.921065 0.583690 2.624556 112 120 140
-1.921065 0.557502 2.650000 104 108 124
-1.921065 0.558360 2.700000 117 128 145
-1.921065 0.633690 1.592185 131 106 120
-1.929351 0.633690 1.900000 126 133 142
-1.921065 0.633690 1.875803 126 133 142
-1.921065 0.612903 1.900000 126 133 142
-1.935389 0.633690 1.950000 133 137 144
-1.946315 0.633690 2.000000 131 134 140
-1.946622 0.633690 2.050000 138 140 145
-1.921065 0.633690 2.091277 114 125 134
-1.921065 0.628958 2.100000 114 125 134
-1.921065 0.606853 2.150000 107 116 121
-1.921065 0.633690 2.524797 102 103 122
-1.921065 0.607805 2.550000 96 98 111
-1.921065 0.608246 2.600000 112 120 140
-1.921065 0.648453 1.600000 131 106 120
-1.921065 0.683690 1.621453 109 123 139
-1.922441 0.683690 1.800000 134 142 150
-1.921065 0.683690 1.796746 134 142 150
-1.921065 0.680302 1.800000 134 142 150
-1.921065 0.663927 1.850000 132 138 148
-1.927027 0.683690 1.850000 132 138 148
-1.933161 0.683690 1.900000 133 138 145
-1.934312 0.683690 1.950000 113 120 131
-1.921065 0.683690 1.987819 108 114 123
-1.921065 0.676111 2.000000 108 114 123
-1.921065 0.653817 2.050000 112 120 129
-1.921065 0.683690 2.424682 98 88 103
-1.921065 0.658018 2.450000 98 97 106
-1.921065 0.658486 2.500000 102 103 122
-1.921065 0.723822 1.650000 122 135 147
-1.921065 0.733690 1.664932 122 135 147
-1.921065 0.719676 1.800000 141 149 156
-1.925622 0.733690 1.850000 127 137 147
-1.921065 0.733690 1.808125 141 149 156
-1.921065 0.733690 1.876298 107 119 130
-1.921065 0.721796 1.900000 107 119 130
-1.921065 0.700611 1.950000 113 120 131
-1.921065 0.733690 2.324739 111 109 119
-1.921065 0.707997 2.350000 105 112 124
-1.921065 0.708372 2.400000 98 88 103
-1.921065 0.783690 1.682974 124 140 150
-1.921065 0.742542 1.850000 127 137 147
-1.945867 0.783690 2.250000 127 124 131
-1.921065 0.783690 2.274802 127 124 131
-1.921065 0.758429 2.300000 111 109 119
-1.921065 0.833690 1.678085 122 139 153
-1.945961 0.833690 2.150000 135 139 148
-1.921065 0.833690 2.174896 135 139 148
-1.921065 0.808307 2.200000 123 124 134
-1.921065 0.808492 2.250000 127 124 131
-1.921065 0.873019 1.600000 124 140 157
-1.921065 0.883690 1.574160 135 153 167
-1.921065 0.850936 1.650000 129 150 163
-1.946048 0.883690 2.050000 138 135 142
-1.921065 0.883690 2.074984 138 135 142
-1.921065 0.858257 2.100000 124 132 141
-1.921065 0.858586 2.150000 135 139 148
-1.921065 0.921271 1.500000 137 153 165
-1.921065 0.933690 1.473417 127 143 160
-1.921065 0.894963 1.550000 135 153 167
-1.945941 0.933690 1.950000 138 143 149
-1.921065 0.933690 1.974876 138 143 149
-1.921065 0.907919 2.000000 151 162 169
-1.921065 0.908673 2.050000 138 135 142
-1.921065 0.974562 1.400000 158 173 186
-1.921065 0.983690 1.383189 158 173 186
-1.921065 0.945816 1.450000 127 143 160
-1.921065 0.983690 1.874825 147 160 168
-1.921065 0.957900 1.900000 113 125 139
-1.921065 0.958566 1.950000 138 143 149
-1.921065 1.000958 1.350000 133 147 161
-1.921065 1.033690 1.343876 151 159 170
-1.921065 1.033690 1.774840 137 151 160
-1.921065 1.007560 1.800000 149 164 173
-1.921065 1.008515 1.850000 147 160 168
-1.921065 1.039814 1.350000 151 159 170
-1.921065 1.083690 1.385062 164 171 180
-1.921065 1.083690 1.674500 159 174 187
-1.921065 1.057451 1.700000 142 156 169
-1.921065 1.058530 1.750000 137 151 160
-1.921065 1.098629 1.400000 164 171 180
-1.921065 1.133690 1.429156 145 152 162
-1.921065 1.133690 1.573780 151 167 182
-1.921065 1.106745 1.600000 121 138 149
-1.921065 1.108190 1.650000 159 174 187
-1.921065 1.154534 1.450000 145 152 162
-1.921065 1.183690 1.475547 192 201 209
-1.921065 1.183690 1.524453 192 201 209
-1.921065 1.157470 1.550000 151 167 182
-1.921065 1.208143 1.500000 192 201 209
-1.871064 -1.790523 3.200000 144 36 35
-1.871064 -1.766310 3.175787 144 36 35
-1.871064 -1.766310 3.224213 144 36 35
-1.871064 -1.739868 3.050000 79 72 123
-1.871064 -1.716310 3.026442 79 72 123
-1.871064 -1.738855 3.100000 96 83 122
-1.871064 -1.737431 3.150000 132 51 56
-1.871064 -1.741204 3.250000 140 35 32
-1.871064 -1.716310 3.274894 140 35 32
-1.871064 -1.685382 3.000000 71 67 117
-1.871064 -1.666310 2.980928 71 67 117
-1.871064 -1.666310 3.274506 145 84 85
-1.871064 -1.631002 2.900000 82 70 115
-1.871064 -1.616310 2.885308 82 70 115
-1.871064 -1.624431 2.950000 93 58 96
-1.871064 -1.640857 3.300000 128 110 103
-1.871064 -1.616310 3.324547 128 110 103
-1.871064 -1.569323 2.850000 156 81 90
-1.871064 -1.566310 2.846987 156 81 90
-1.871064 -1.566310 2.858682 156 81 90
-1.871064 -1.587464 2.900000 101 74 116
-1.871064 -1.591523 2.950000 93 58 96
-1.871064 -1.578270 3.000000 124 55 66
-1.871064 -1.566310 3.004806 124 55 66
-1.871064 -1.566310 3.324698 101 81 93
-1.871064 -1.561330 2.850000 156 81 90
-1.871064 -1.516310 3.009682 153 108 106
-1.871064 -1.541283 3.350000 53 38 62
-1.896037 -1.516310 3.350000 53 38 62
-1.871064 -1.516310 3.374973 53 38 62
-1.871064 -1.478283 3.000000 173 155 146
-1.871064 -1.466310 2.995942 173 155 146
-1.871064 -1.466310 3.323882 107 91 118
-1.896429 -1.466310 3.350000 59 44 75
-1.871064 -1.491337 3.350000 53 38 62
-1.871064 -1.455194 3.000000 173 155 146
-1.871064 -1.416310 3.015969 159 140 142
-1.871064 -1.440942 3.350000 117 107 124
-1.871064 -1.416310 3.374632 117 107 124
-1.871064 -1.366310 3.037802 123 106 127
-1.895945 -1.366310 3.350000 56 44 73
-1.871064 -1.366310 3.374881 56 44 73
-1.871064 -1.337397 3.050000 110 100 123
-1.871064 -1.316310 3.058627 110 100 123
-1.898792 -1.316310 3.300000 242 237 235
-1.871064 -1.316310 3.274092 120 109 125
-1.871064 -1.343438 3.300000 119 107 136
-1.871064 -1.341430 3.350000 56 44 73
-1.880276 -1.266310 3.100000 127 117 138
-1.871064 -1.266310 3.091978 127 117 138
-1.901240 -1.266310 3.300000 250 245 242
-1.871064 -1.266310 3.274590 136 133 150
-1.871064 -1.246470 3.100000 127 117 138
-1.871064 -1.216310 3.104650 134 122 140
-1.907211 -1.216310 3.250000 203 200 203
-1.871064 -1.216310 3.224136 149 148 153
-1.871064 -1.241720 3.250000 136 133 150
-1.909771 -1.216310 3.300000 254 255 253
-1.871064 -1.166310 3.104263 178 172 175
-1.871064 -1.191093 3.250000 221 220 221
-1.910806 -1.166310 3.300000 252 255 254
-1.871064 -1.166310 3.274782 221 220 221
-1.918844 -1.116310 3.150000 183 181 183
-1.871064 -1.116310 3.105674 190 189 188
-1.916545 -1.116310 3.250000 224 226 229
-1.871064 -1.116310 3.224124 181 180 182
-1.871064 -1.141528 3.250000 221 220 221
-1.913417 -1.116310 3.300000 250 252 251
-1.911795 -1.066310 3.150000 185 185 186
-1.871064 -1.066310 3.110784 191 190 191
-1.918337 -1.066310 3.200000 186 184 187
-1.871064 -1.081517 3.250000 194 198 202
-1.921048 -1.066310 3.250000 223 223 224
-1.871064 -1.066310 3.265206 194 198 202
-1.917738 -1.066310 3.300000 213 219 222
-1.912859 -1.066310 3.350000 180 185 192
-1.902163 -1.016310 3.150000 194 192 196
-1.871064 -1.016310 3.118478 188 188 189
-1.911823 -1.016310 3.200000 187 189 193
-1.914085 -1.016310 3.250000 218 226 228
-1.871064 -1.016310 3.271817 196 203 209
-1.915914 -1.016310 3.350000 173 184 193
-1.904880 -0.966310 3.150000 177 174 175
-1.871064 -0.966310 3.119449 186 187 190
-1.920441 -0.966310 3.200000 170 173 178
-1.918755 -0.966310 3.250000 185 196 201
-1.920120 -0.966310 3.300000 186 197 203
-1.871064 -0.966310 3.274708 201 208 213
-1.887690 -0.916310 3.100000 150 150 154
-1.871064 -0.943735 3.100000 186 187 190
-1.871064 -0.916310 3.084555 150 150 154
-1.895181 -0.916310 3.300000 230 225 232
-1.871064 -0.940426 3.300000 230 225 232
-1.871064 -0.916310 3.324116 230 225 232
-1.871064 -0.866310 3.056750 99 93 90
-1.895305 -0.866310 3.300000 212 210 223
-1.871064 -0.866310 3.324240 212 210 223
-1.871064 -0.837804 3.000000 254 255 255
-1.871064 -0.816310 2.978963 254 255 255
-1.896868 -0.816310 3.050000 244 245 246
-1.871064 -0.816310 3.021037 254 255 255
-1.893952 -0.816310 3.100000 198 185 179
-1.871064 -0.816310 3.077112 198 185 179
-1.871064 -0.816310 3.122888 198 185 179
-1.871064 -0.844834 3.150000 167 164 165
-1.871064 -0.843139 3.200000 180 175 180
-1.871064 -0.841962 3.250000 219 215 214
-1.871064 -0.842070 3.300000 212 210 223
-1.871064 -0.775139 2.850000 152 143 140
-1.871064 -0.766310 2.828346 152 143 140
-1.871064 -0.782290 2.900000 159 150 151
-1.871064 -0.787980 2.950000 176 171 171
-1.871064 -0.790646 3.050000 205 204 205
-1.871064 -0.793423 3.100000 198 185 179
-1.871064 -0.766310 3.074336 205 204 205
-1.871064 -0.723796 2.800000 114 100 99
-1.871064 -0.716310 2.791083 114 100 99
-1.871064 -0.741059 3.100000 135 124 128
-1.871064 -0.716310 3.124749 135 124 128
-1.871064 -0.703209 2.800000 114 100 99
-1.871064 -0.666310 2.829278 133 108 114
-1.871064 -0.666310 3.124636 81 42 48
-1.871064 -0.626564 2.850000 62 40 51
-1.871064 -0.616310 2.855207 62 40 51
-1.871064 -0.641168 3.150000 134 43 64
-1.871064 -0.616310 3.174858 134 43 64
-1.871064 -0.566310 2.879430 86 29 42
-1.871064 -0.566310 3.174560 103 35 40
-1.920480 -0.516310 2.350000 82 82 92
-1.871064 -0.524575 2.900000 92 22 31
-1.871064 -0.516310 2.904018 92 22 31
-1.871064 -0.541240 3.200000 139 41 64
-1.895995 -0.516310 3.200000 139 41 64
-1.871064 -0.516310 3.224930 139 41 64
-1.915397 -0.466310 2.250000 85 83 95
-1.871064 -0.466310 2.930726 102 20 31
-1.871064 -0.466310 3.224632 97 31 36
-1.908725 -0.416310 2.150000 102 97 109
-1.915310 -0.416310 2.200000 81 73 82
-1.871064 -0.429338 2.950000 106 24 32
-1.871064 -0.416310 2.956887 106 24 32
-1.871064 -0.416310 3.224238 117 27 42
-1.908235 -0.366310 2.100000 76 72 84
-1.871064 -0.366310 2.982427 109 26 31
-1.871064 -0.391038 3.250000 102 30 34
-1.871064 -0.366310 3.274728 102 30 34
-1.902294 -0.316310 2.000000 94 84 90
-1.915597 -0.316310 2.050000 87 75 81
-1.871064 -0.329620 3.000000 110 29 33
-1.871064 -0.316310 3.006420 110 29 33
-1.871064 -0.341242 3.300000 86 39 31
-1.895997 -0.316310 3.300000 86 39 31
-1.871064 -0.316310 3.324932 86 39 31
-1.892147 -0.266310 1.900000 78 63 69
-1.902159 -0.266310 1.950000 79 71 76
-1.915591 -0.266310 2.000000 95 81 77
-1.918876 -0.266310 2.050000 88 73 78
-1.871064 -0.266310 3.035316 147 45 62
-1.871064 -0.266310 3.324549 93 27 31
-1.871190 -0.216310 1.800000 81 75 79
-1.891677 -0.216310 1.850000 88 72 72
-1.905337 -0.216310 1.900000 93 77 72
-1.910477 -0.216310 1.950000 89 71 75
-1.916423 -0.216310 2.000000 83 29 36
-1.920244 -0.216310 2.050000 100 22 30
-1.871064 -0.238445 3.050000 146 45 61
-1.871064 -0.216310 3.061465 146 45 61
-1.871064 -0.216310 3.324170 113 48 53
-1.871064 -0.171445 1.700000 92 85 91
-1.871064 -0.166310 1.685365 92 85 91
-1.882223 -0.166310 1.750000 107 90 82
-1.871064 -0.166310 1.724008 92 85 91
-1.893648 -0.166310 1.800000 101 91 91
-1.900314 -0.166310 1.850000 88 68 73
-1.905121 -0.166310 1.900000 82 32 39
-1.911061 -0.166310 1.950000 102 23 32
-1.916077 -0.166310 2.000000 105 47 48
-1.920509 -0.166310 2.050000 107 22 35
-1.871064 -0.166310 3.086699 124 72 63
-1.871064 -0.191084 3.350000 101 38 41
-1.871064 -0.166310 3.374774 101 38 41
-1.871064 -0.124960 1.600000 96 86 89
-1.871064 -0.116310 1.580558 96 86 89
-1.871064 -0.117904 1.650000 92 78 79
-1.871064 -0.141262 1.700000 106 94 107
-1.883880 -0.116310 1.700000 106 94 107
-1.871064 -0.116310 1.653697 92 78 79
-1.890901 -0.116310 1.750000 89 34 41
-1.895409 -0.116310 1.800000 98 18 32
-1.900904 -0.116310 1.850000 103 20 30
-1.906368 -0.116310 1.900000 105 23 33
-1.910987 -0.116310 1.950000 112 23 34
-1.915841 -0.116310 2.000000 114 25 31
-1.920905 -0.116310 2.050000 116 23 30
-1.871064 -0.139781 3.100000 118 52 49
-1.871064 -0.116310 3.112036 118 52 49
-1.871064 -0.116310 3.374440 107 57 59
-1.871064 -0.067837 1.450000 70 68 76
-1.871064 -0.066310 1.445457 70 68 76
-1.871064 -0.078188 1.500000 107 94 97
-1.871064 -0.085388 1.550000 99 92 102
-1.873363 -0.066310 1.600000 107 98 107
-1.871064 -0.066310 1.594541 107 98 107
-1.871064 -0.071622 1.600000 107 98 107
-1.871064 -0.109036 1.650000 92 78 79
-1.878119 -0.066310 1.650000 92 48 53
-1.884921 -0.066310 1.700000 101 20 29
-1.890360 -0.066310 1.750000 114 27 31
-1.895279 -0.066310 1.800000 117 26 33
-1.900665 -0.066310 1.850000 115 26 31
-1.905912 -0.066310 1.900000 117 24 31
-1.911216 -0.066310 1.950000 118 26 31
-1.915854 -0.066310 2.000000 118 23 32
-1.920907 -0.066310 2.050000 118 25 30
-1.871064 -0.066310 3.149158 119 91 98
-1.871064 -0.090687 3.400000 151 124 107
-1.871064 -0.066310 3.424377 151 124 107
-1.871064 -0.017284 1.350000 74 73 81
-1.871064 -0.016310 1.347932 74 73 81
-1.871064 -0.040014 1.400000 92 88 94
-1.873585 -0.016310 1.600000 109 43 51
-1.871064 -0.016310 1.582469 109 43 51
-1.879464 -0.016310 1.650000 118 71 73
-1.884940 -0.016310 1.700000 115 30 35
-1.890160 -0.016310 1.750000 117 29 31
-1.895653 -0.016310 1.800000 120 28 30
-1.901172 -0.016310 1.850000 120 28 31
-1.906336 -0.016310 1.900000 120 29 31
-1.911294 -0.016310 1.950000 121 30 31
-1.916349 -0.016310 2.000000 121 29 32
-1.920949 -0.016310 2.050000 122 29 30
-1.871064 -0.065168 3.150000 119 91 98
-1.871064 -0.016310 3.188370 125 125 128
-1.871064 -0.040955 3.450000 139 106 97
-1.871064 -0.016310 3.474645 139 106 97
-1.878285 0.033690 1.250000 90 91 99
-1.871064 0.033690 1.251901 90 91 99
-1.871064 0.007623 1.300000 75 74 82
-1.872931 0.033690 1.600000 116 27 40
-1.871064 0.033690 1.583703 116 27 40
-1.878543 0.033690 1.650000 121 33 37
-1.884665 0.033690 1.700000 119 37 37
-1.890114 0.033690 1.750000 120 36 38
-1.895867 0.033690 1.800000 123 36 38
-1.901021 0.033690 1.850000 123 35 38
-1.906260 0.033690 1.900000 122 35 38
-1.911136 0.033690 1.950000 124 35 38
-1.916182 0.033690 2.000000 123 35 38
-1.871064 0.009233 3.200000 131 124 126
-1.871064 0.033690 3.212107 131 124 126
-1.871064 0.033690 3.474238 130 119 111
-1.871064 0.036181 1.250000 90 91 99
-1.871064 0.083690 1.236387 97 94 105
-1.872731 0.083690 1.600000 130 37 47
-1.871064 0.083690 1.586381 130 37 47
-1.878348 0.083690 1.650000 126 34 43
-1.884315 0.083690 1.700000 122 35 39
-1.890186 0.083690 1.750000 125 39 39
-1.895100 0.083690 1.800000 123 37 38
-1.901127 0.083690 1.850000 122 36 39
-1.906158 0.083690 1.900000 126 38 41
-1.910975 0.083690 1.950000 124 34 38
-1.916147 0.083690 2.000000 125 37 41
-1.920980 0.083690 2.050000 126 35 39
-1.871064 0.081035 3.150000 149 122 111
-1.871064 0.083690 3.145180 149 122 111
-1.871064 0.046058 3.200000 131 124 126
-1.871064 0.083690 3.474408 113 115 112
-1.871064 0.092215 1.250000 97 94 105
-1.871064 0.095572 1.300000 91 79 93
-1.871064 0.094498 1.350000 63 48 69
-1.871064 0.133690 1.378980 140 57 73
-1.871937 0.133690 1.600000 134 35 47
-1.871064 0.133690 1.592711 134 35 47
-1.877904 0.133690 1.650000 131 34 44
-1.883826 0.133690 1.700000 126 36 38
-1.889922 0.133690 1.750000 126 38 38
-1.895788 0.133690 1.800000 126 37 40
-1.901415 0.133690 1.850000 127 36 39
-1.906469 0.133690 1.900000 124 39 39
-1.911200 0.133690 1.950000 124 36 38
-1.916169 0.133690 2.000000 126 37 40
-1.871064 0.133514 3.050000 131 107 113
-1.871064 0.133690 3.049692 131 107 113
-1.871064 0.107356 3.100000 148 122 122
-1.871064 0.108923 3.500000 77 81 93
-1.895831 0.133690 3.500000 77 81 93
-1.871064 0.133690 3.524767 77 81 93
-1.871064 0.183690 1.398526 122 59 74
-1.871460 0.183690 1.600000 137 34 48
-1.871064 0.183690 1.596792 137 34 48
-1.877736 0.183690 1.650000 134 32 47
-1.883151 0.183690 1.700000 127 33 38
-1.889817 0.183690 1.750000 127 37 38
-1.895287 0.183690 1.800000 127 37 39
-1.901040 0.183690 1.850000 126 36 39
-1.906568 0.183690 1.900000 123 37 39
-1.911237 0.183690 1.950000 125 34 37
-1.916322 0.183690 2.000000 125 34 38
-1.871064 0.182241 2.950000 128 108 102
-1.871064 0.183690 2.947110 128 108 102
-1.871064 0.157624 3.000000 122 99 103
-1.895841 0.183690 3.400000 99 108 125
-1.871064 0.183690 3.424777 99 108 125
-1.871064 0.158067 3.450000 107 117 128
-1.871064 0.158456 3.500000 77 81 93
-1.871064 0.186938 1.400000 122 59 74
-1.871064 0.233690 1.433675 152 63 78
-1.871064 0.225648 1.600000 139 35 48
-1.877147 0.233690 1.650000 137 34 47
-1.871064 0.233690 1.600599 139 35 48
-1.882913 0.233690 1.700000 132 35 40
-1.888911 0.233690 1.750000 127 36 38
-1.895631 0.233690 1.800000 127 35 36
-1.900851 0.233690 1.850000 127 37 37
-1.905988 0.233690 1.900000 126 34 38
-1.911158 0.233690 1.950000 125 37 38
-1.915970 0.233690 2.000000 124 36 39
-1.920791 0.233690 2.050000 125 35 38
-1.871064 0.210548 2.900000 128 117 111
-1.871064 0.233690 2.857731 133 119 116
-1.871064 0.233690 3.324726 103 110 120
-1.871064 0.207857 3.350000 114 125 135
-1.871064 0.208467 3.400000 99 108 125
-1.871064 0.280210 1.450000 153 63 77
-1.873303 0.283690 1.450000 153 63 77
-1.871064 0.283690 1.453217 153 63 77
-1.876887 0.283690 1.650000 138 32 45
-1.871064 0.283690 1.601031 143 36 48
-1.883197 0.283690 1.700000 131 34 43
-1.888605 0.283690 1.750000 126 34 37
-1.894531 0.283690 1.800000 126 35 38
-1.900007 0.283690 1.850000 126 35 37
-1.905797 0.283690 1.900000 125 37 41
-1.911541 0.283690 1.950000 122 37 40
-1.916238 0.283690 2.000000 126 38 39
-1.920769 0.283690 2.050000 123 36 39
-1.871064 0.265029 2.800000 148 130 123
-1.871064 0.283690 2.763659 141 130 127
-1.871064 0.237877 2.850000 133 119 116
-1.871064 0.283690 3.224724 105 110 121
-1.871064 0.257610 3.250000 118 126 138
-1.871064 0.258415 3.300000 103 110 120
-1.871064 0.333690 1.489398 154 65 79
-1.876412 0.333690 1.650000 139 34 47
-1.871064 0.333690 1.604037 144 39 53
-1.882872 0.333690 1.700000 132 31 43
-1.888189 0.333690 1.750000 123 34 37
-1.893993 0.333690 1.800000 123 34 37
-1.899465 0.333690 1.850000 124 39 39
-1.905207 0.333690 1.900000 124 38 39
-1.911034 0.333690 1.950000 122 37 38
-1.915786 0.333690 2.000000 122 37 39
-1.871064 0.316952 2.700000 114 117 121
-1.871064 0.333690 2.669607 115 118 127
-1.871064 0.290513 2.750000 141 130 127
-1.896416 0.333690 3.100000 91 96 108
-1.871064 0.333690 3.074446 72 46 38
-1.871064 0.306769 3.100000 134 134 119
-1.871064 0.307589 3.150000 107 112 125
-1.871064 0.308414 3.200000 105 110 121
-1.871064 0.368393 1.500000 157 66 79
-1.878288 0.383690 1.500000 157 66 79
-1.871064 0.383690 1.515996 157 66 79
-1.875992 0.383690 1.650000 136 36 50
-1.871064 0.383690 1.604151 147 44 57
-1.882442 0.383690 1.700000 131 35 44
-1.888034 0.383690 1.750000 123 36 39
-1.893741 0.383690 1.800000 121 36 39
-1.899491 0.383690 1.850000 121 36 37
-1.904719 0.383690 1.900000 121 35 38
-1.910218 0.383690 1.950000 120 39 41
-1.916181 0.383690 2.000000 117 56 58
-1.871064 0.370801 2.600000 115 120 124
-1.871064 0.383690 2.575229 115 120 124
-1.871064 0.344815 2.650000 115 118 127
-1.895615 0.383690 2.950000 76 54 48
-1.871064 0.383690 2.974550 76 54 48
-1.871064 0.357648 3.000000 89 62 56
-1.871064 0.358136 3.050000 72 46 38
-1.871064 0.433690 1.543376 153 69 81
-1.875999 0.433690 1.650000 136 37 50
-1.871064 0.433690 1.609193 149 49 60
-1.881666 0.433690 1.700000 132 35 47
-1.886603 0.433690 1.750000 126 35 42
-1.892434 0.433690 1.800000 118 52 53
-1.898665 0.433690 1.850000 119 36 36
-1.904350 0.433690 1.900000 119 51 53
-1.909547 0.433690 1.950000 118 62 65
-1.915523 0.433690 2.000000 118 60 64
-1.920169 0.433690 2.050000 122 66 71
-1.871064 0.421755 2.500000 126 129 136
-1.871064 0.433690 2.476192 126 129 136
-1.871064 0.396850 2.550000 113 115 125
-1.871064 0.433690 2.874612 103 91 93
-1.871064 0.407838 2.900000 113 102 104
-1.871064 0.408240 2.950000 76 54 48
-1.871064 0.456138 1.550000 153 69 81
-1.879187 0.483690 1.550000 157 66 81
-1.871064 0.483690 1.592798 148 59 70
-1.875771 0.483690 1.650000 139 42 55
-1.871064 0.483690 1.605706 148 59 70
-1.880744 0.483690 1.700000 133 43 55
-1.886123 0.483690 1.750000 125 54 61
-1.892162 0.483690 1.800000 118 65 67
-1.897460 0.483690 1.850000 118 54 60
-1.902816 0.483690 1.900000 117 64 68
-1.908051 0.483690 1.950000 117 67 77
-1.916486 0.483690 2.000000 119 68 85
-1.920789 0.483690 2.050000 109 82 87
-1.871064 0.473856 2.400000 125 131 142
-1.871064 0.483690 2.380579 125 131 142
-1.871064 0.447433 2.450000 116 120 125
-1.871064 0.483690 2.824981 122 117 121
-1.871064 0.458302 2.850000 103 91 93
-1.871064 0.500592 1.600000 148 59 70
-1.872512 0.533690 1.600000 148 68 82
-1.875328 0.533690 1.650000 144 58 70
-1.880749 0.533690 1.700000 131 56 68
-1.886163 0.533690 1.750000 128 69 77
-1.891121 0.533690 1.800000 120 67 71
-1.896219 0.533690 1.850000 117 65 72
-1.903927 0.533690 1.900000 116 66 71
-1.913309 0.533690 1.950000 115 69 75
-1.917313 0.533690 2.000000 126 101 105
-1.871064 0.527810 2.300000 121 128 137
-1.871064 0.533690 2.289597 121 128 137
-1.871064 0.499949 2.350000 107 114 123
-1.871064 0.533690 2.724711 125 133 152
-1.871064 0.507927 2.750000 118 117 126
-1.871064 0.508671 2.800000 122 117 121
-1.878439 0.583690 1.600000 144 80 92
-1.874611 0.583690 1.650000 144 78 92
-1.879740 0.583690 1.700000 134 74 85
-1.885242 0.583690 1.750000 128 73 82
-1.890690 0.583690 1.800000 112 81 92
-1.906855 0.583690 1.850000 122 69 76
-1.910493 0.583690 1.900000 118 90 99
-1.871064 0.583218 2.200000 116 123 134
-1.871064 0.583690 2.199154 116 123 134
-1.871064 0.555977 2.250000 104 113 120
-1.871064 0.583690 2.624431 101 110 129
-1.871064 0.557443 2.650000 108 113 127
-1.871064 0.558401 2.700000 125 133 152
-1.877465 0.633690 1.600000 134 109 122
-1.876113 0.633690 1.650000 147 101 116
-1.881257 0.633690 1.700000 130 98 108
-1.896971 0.633690 1.750000 136 76 89
-1.903475 0.633690 1.800000 121 88 99
-1.911205 0.633690 1.850000 127 128 135
-1.871064 0.631922 2.100000 103 112 125
-1.871064 0.633690 2.096153 103 112 125
-1.871064 0.608290 2.150000 116 125 132
-1.871064 0.633690 2.524685 82 81 97
-1.871064 0.607939 2.550000 88 89 101
-1.871064 0.608121 2.600000 101 110 129
-1.877939 0.683690 1.650000 131 144 154
-1.895731 0.683690 1.700000 142 152 159
-1.901126 0.683690 1.750000 134 135 143
-1.871064 0.680465 2.000000 112 121 138
-1.871064 0.683690 1.993308 112 121 138
-1.871064 0.656564 2.050000 117 133 147
-1.871064 0.683690 2.424614 125 117 124
-1.871064 0.658011 2.450000 99 100 108
-1.871064 0.658375 2.500000 82 81 97
-1.903441 0.733690 1.700000 124 136 150
-1.915322 0.733690 1.750000 141 151 159
-1.919828 0.733690 1.800000 141 149 156
-1.871064 0.730525 1.900000 112 124 137
-1.871064 0.733690 1.893525 112 124 137
-1.871064 0.705484 1.950000 124 136 155
-1.871064 0.733690 2.324552 130 128 134
-1.871064 0.707939 2.350000 99 103 113
-1.871064 0.708303 2.400000 125 117 124
-1.904634 0.783690 1.700000 124 140 150
-1.901919 0.783690 1.750000 131 143 157
-1.871064 0.783690 1.792217 128 136 147
-1.871064 0.779705 1.800000 128 136 147
-1.871064 0.755767 1.850000 131 143 157
-1.871064 0.783690 2.274738 131 127 134
-1.871064 0.758242 2.300000 130 128 134
-1.871064 0.829716 1.700000 137 150 159
-1.871064 0.833690 1.691679 137 150 159
-1.871064 0.806559 1.750000 126 140 153
-1.896168 0.833690 2.150000 135 139 148
-1.871064 0.833690 2.124617 122 130 144
-1.871064 0.807347 2.150000 106 115 127
-1.871064 0.808251 2.200000 111 120 128
-1.871064 0.808427 2.250000 131 127 134
-1.871064 0.874977 1.600000 137 150 161
-1.871064 0.883690 1.579657 137 150 161
-1.871064 0.853102 1.650000 129 147 155
-1.896081 0.883690 2.050000 138 135 142
-1.871064 0.883690 2.024313 127 140 150
-1.871064 0.857099 2.050000 119 129 139
-1.871064 0.858307 2.100000 122 130 144
-1.871064 0.921950 1.500000 135 155 167
-1.871064 0.933690 1.476659 135 155 167
-1.871064 0.897405 1.550000 125 140 155
-1.871064 0.933690 1.974773 170 179 183
-1.871064 0.908003 2.000000 127 140 150
-1.871064 0.975421 1.400000 136 150 167
-1.871064 0.983690 1.385409 136 150 167
-1.871064 0.948364 1.450000 134 152 164
-1.871064 0.983690 1.874739 164 173 179
-1.871064 0.957827 1.900000 129 140 150
-1.871064 0.958463 1.950000 170 179 183
-1.871064 0.998971 1.350000 174 184 194
-1.871064 1.033690 1.342341 158 165 177
-1.871064 1.033690 1.774716 149 164 172
-1.871064 1.007450 1.800000 135 151 166
-1.871064 1.008429 1.850000 164 173 179
-1.871064 1.041348 1.350000 158 165 177
-1.871064 1.083690 1.384956 149 153 164
-1.871064 1.083690 1.674451 146 162 178
-1.871064 1.057063 1.700000 129 145 158
-1.871064 1.058406 1.750000 149 164 172
-1.871064 1.098734 1.400000 149 153 164
-1.871064 1.133690 1.429323 193 202 213
-1.895942 1.133690 1.600000 152 168 178
-1.871064 1.133690 1.624877 152 168 178
-1.871064 1.108141 1.650000 146 162 178
-1.895153 1.183690 1.450000 161 180 186
-1.871064 1.183690 1.425911 161 180 186
-1.871064 1.183690 1.524502 169 181 195
-1.871064 1.157384 1.550000 131 144 160
-1.871064 1.158567 1.600000 152 168 178
-1.871064 1.207779 1.450000 161 180 186
-1.871064 1.208192 1.500000 169 181 195
-1.821064 -1.790626 3.200000 153 34 31
-1.821064 -1.766310 3.175685 153 34 31
-1.821064 -1.766310 3.224315 153 34 31
-1.821064 -1.739109 3.050000 120 69 89
-1.821064 -1.716310 3.027202 120 69 89
-1.821064 -1.739517 3.100000 146 37 37
-1.821064 -1.737439 3.150000 161 37 34
-1.821064 -1.740879 3.250000 156 36 36
-1.821064 -1.716310 3.274569 156 36 36
-1.821064 -1.684295 3.000000 82 73 123
-1.821064 -1.666310 2.982015 82 73 123
-1.821064 -1.690982 3.300000 202 101 109
-1.845736 -1.666310 3.300000 202 101 109
-1.821064 -1.666310 3.324672 202 101 109
-1.821064 -1.624549 2.900000 73 68 118
-1.821064 -1.616310 2.891761 73 68 118
-1.821064 -1.623838 2.950000 104 59 96
-1.821064 -1.616310 3.324507 127 108 104
-1.847653 -1.566310 2.850000 156 81 90
-1.821064 -1.598091 2.900000 73 68 118
-1.821064 -1.593925 2.950000 104 59 96
-1.821064 -1.588019 3.000000 140 52 64
-1.821064 -1.566310 3.009854 140 52 64
-1.821064 -1.566310 3.324651 128 116 116
-1.821064 -1.516310 3.014367 151 106 104
-1.821064 -1.541089 3.350000 112 101 109
-1.821064 -1.516310 3.374779 112 101 109
-1.821064 -1.473441 3.000000 167 147 143
-1.821064 -1.466310 2.997139 167 147 143
-1.846047 -1.466310 3.350000 93 88 106
-1.821064 -1.466310 3.374982 93 88 106
-1.821064 -1.457811 3.000000 167 147 143
-1.821064 -1.416310 3.017868 135 119 123
-1.821064 -1.416310 3.374772 66 57 83
-1.821064 -1.366310 3.036170 113 96 118
-1.821064 -1.366310 3.374691 47 39 76
-1.821064 -1.327725 3.050000 101 88 113
-1.821064 -1.316310 3.055197 101 88 113
-1.821064 -1.316310 3.273582 123 113 132
-1.821064 -1.342423 3.300000 126 114 134
-1.821064 -1.341619 3.350000 47 39 76
-1.821064 -1.266310 3.060962 123 112 133
-1.821064 -1.266310 3.274448 111 104 121
-1.865599 -1.216310 3.100000 134 122 140
-1.821064 -1.216310 3.058424 132 123 146
-1.846006 -1.216310 3.250000 249 248 246
-1.821064 -1.216310 3.274942 249 248 246
-1.826111 -1.166310 3.050000 175 168 170
-1.821064 -1.188258 3.050000 175 168 170
-1.821064 -1.166310 3.045920 175 168 170
-1.866807 -1.166310 3.100000 178 172 175
-1.821064 -1.166310 3.274705 193 190 193
-1.825209 -1.116310 3.050000 179 174 177
-1.821064 -1.116310 3.046542 179 174 177
-1.865134 -1.116310 3.100000 190 189 188
-1.845825 -1.116310 3.250000 198 199 202
-1.821064 -1.116310 3.274761 198 199 202
-1.845970 -1.116310 3.400000 228 224 221
-1.821064 -1.141216 3.400000 228 224 221
-1.821064 -1.116310 3.375095 228 224 221
-1.821064 -1.116310 3.424906 228 224 221
-1.826457 -1.066310 3.050000 185 183 184
-1.821064 -1.066310 3.045089 185 183 184
-1.860019 -1.066310 3.100000 191 190 191
-1.821064 -1.066310 3.274286 218 219 221
-1.844294 -1.066310 3.350000 227 219 217
-1.821064 -1.089540 3.350000 227 219 217
-1.821064 -1.066310 3.326771 227 219 217
-1.821064 -1.091405 3.400000 228 224 221
-1.821064 -1.066310 3.373229 227 219 217
-1.821689 -1.016310 3.050000 188 187 186
-1.821064 -1.016310 3.049384 188 187 186
-1.853898 -1.016310 3.100000 188 188 189
-1.821064 -1.016310 3.274464 215 214 218
-1.845012 -1.016310 3.350000 218 202 202
-1.821064 -1.016310 3.326052 218 202 202
-1.821064 -1.040503 3.400000 226 218 217
-1.845257 -1.016310 3.400000 226 218 217
-1.845809 -1.016310 3.450000 219 223 224
-1.821064 -1.041055 3.450000 219 223 224
-1.821064 -1.016310 3.474745 219 223 224
-1.821064 -1.007860 3.050000 188 187 186
-1.821064 -0.966310 3.055892 184 184 185
-1.850053 -0.966310 3.100000 186 187 190
-1.821064 -0.966310 3.274511 222 224 224
-1.844914 -0.966310 3.350000 236 226 224
-1.821064 -0.966310 3.326151 236 226 224
-1.845670 -0.966310 3.400000 229 220 225
-1.821064 -0.966310 3.424605 229 220 225
-1.821064 -0.991566 3.450000 219 223 224
-1.829381 -0.916310 3.050000 167 167 167
-1.821064 -0.953626 3.050000 184 184 185
-1.821064 -0.916310 3.040832 167 167 167
-1.846948 -0.916310 3.300000 230 225 232
-1.821064 -0.916310 3.274371 216 216 222
-1.821064 -0.942461 3.350000 236 226 224
-1.821064 -0.941705 3.400000 229 220 225
-1.821064 -0.916310 3.425651 170 167 178
-1.845413 -0.916310 3.450000 170 167 178
-1.821064 -0.940659 3.450000 170 167 178
-1.821064 -0.916310 3.474349 170 167 178
-1.860784 -0.866310 3.050000 99 93 90
-1.821064 -0.866310 3.010297 217 218 219
-1.821064 -0.889853 3.300000 216 205 209
-1.821064 -0.866310 3.323542 216 205 209
-1.821064 -0.891962 3.450000 170 167 178
-1.839977 -0.816310 2.950000 255 255 255
-1.821064 -0.837735 2.950000 255 255 255
-1.821064 -0.816310 2.931088 255 255 255
-1.821064 -0.859463 3.000000 217 218 219
-1.830582 -0.816310 3.050000 255 255 255
-1.848177 -0.816310 3.100000 198 185 179
-1.821064 -0.849598 3.100000 200 200 201
-1.821064 -0.816310 3.059517 255 255 255
-1.821064 -0.816310 3.133088 190 206 219
-1.837976 -0.816310 3.150000 190 206 219
-1.821064 -0.816310 3.166912 190 206 219
-1.821064 -0.844188 3.200000 212 206 211
-1.843727 -0.816310 3.250000 171 160 156
-1.821064 -0.816310 3.227337 171 160 156
-1.821064 -0.816310 3.272663 171 160 156
-1.821064 -0.842768 3.300000 216 205 209
-1.821064 -0.775354 2.850000 221 222 221
-1.821064 -0.766310 2.821190 191 187 189
-1.821064 -0.784182 2.900000 175 167 163
-1.821064 -0.766310 3.074328 213 213 214
-1.821064 -0.799398 3.150000 190 206 219
-1.821064 -0.793647 3.250000 171 160 156
-1.821064 -0.726723 2.800000 105 96 98
-1.821064 -0.716310 2.788274 105 96 98
-1.821064 -0.741134 3.100000 88 79 90
-1.821064 -0.716310 3.124824 88 79 90
-1.821064 -0.703598 2.800000 105 96 98
-1.821064 -0.666310 2.830806 146 112 114
-1.821064 -0.666310 3.124518 77 39 48
-1.821064 -0.629588 2.850000 61 42 50
-1.821064 -0.616310 2.857145 61 42 50
-1.821064 -0.641053 3.150000 139 54 71
-1.821064 -0.616310 3.174743 139 54 71
-1.821064 -0.566310 2.882686 87 32 43
-1.821064 -0.566310 3.174500 109 40 45
-1.821064 -0.530996 2.900000 95 22 33
-1.821064 -0.516310 2.907139 95 22 33
-1.821064 -0.541131 3.200000 105 29 36
-1.821064 -0.516310 3.224822 105 29 36
-1.821064 -0.466310 2.932896 103 24 31
-1.821064 -0.466310 3.224546 99 33 37
-1.821064 -0.433881 2.950000 108 24 31
-1.821064 -0.416310 2.959289 108 24 31
-1.821064 -0.416310 3.224274 120 29 43
-1.821064 -0.366310 2.984534 111 26 30
-1.821064 -0.390941 3.250000 97 30 34
-1.821064 -0.366310 3.274631 97 30 34
-1.821064 -0.336307 3.000000 121 27 37
-1.821064 -0.316310 3.010288 121 27 37
-1.846133 -0.316310 3.300000 86 39 31
-1.821064 -0.316310 3.274126 117 47 49
-1.821064 -0.266310 3.038501 152 46 62
-1.821064 -0.290931 3.300000 109 31 40
-1.821064 -0.266310 3.324620 109 31 40
-1.821064 -0.245586 3.050000 152 46 62
-1.821064 -0.216310 3.065623 143 44 62
-1.821064 -0.216310 3.324154 116 56 58
-1.861309 -0.166310 1.700000 92 85 91
-1.821064 -0.166310 3.090200 122 73 66
-1.821064 -0.190922 3.350000 113 46 48
-1.821064 -0.166310 3.374612 113 46 48
-1.852445 -0.116310 1.600000 96 86 89
-1.870069 -0.116310 1.650000 92 78 79
-1.821064 -0.148218 3.100000 122 73 66
-1.821064 -0.116310 3.117163 126 62 59
-1.821064 -0.116310 3.374351 111 58 58
-1.857604 -0.066310 1.450000 70 68 76
-1.838735 -0.066310 1.500000 105 89 94
-1.854133 -0.066310 1.550000 99 92 102
-1.821064 -0.069053 3.150000 119 84 86
