ply
format ascii 1.0
element vertex 1208
property float x
property float y
property float z
property uchar red
property uchar green
property uchar blue
end_header
-2.621065 0.073766 1.400000 219 222 226
-2.621065 0.078856 1.500000 49 48 62
-2.621065 0.081747 1.600000 80 76 82
-2.670412 0.233690 1.300000 248 248 248
-2.621065 0.184343 1.300000 248 248 248
-2.621065 0.233690 1.250653 248 248 248
-2.621065 0.233690 1.349347 248 248 248
-2.670676 0.233690 1.500000 251 252 252
-2.621065 0.184078 1.500000 251 252 252
-2.621065 0.233690 1.450388 251 252 252
-2.670280 0.233690 1.600000 225 236 239
-2.621065 0.184474 1.600000 225 236 239
-2.621065 0.233690 1.649215 225 236 239
-2.664113 0.333690 1.300000 246 248 247
-2.621065 0.333690 1.256952 246 248 247
-2.621065 0.333690 1.343048 246 248 247
-2.670651 0.333690 1.500000 221 227 227
-2.621065 0.333690 1.450414 221 227 227
-2.670608 0.333690 1.600000 223 224 226
-2.621065 0.333690 1.649543 223 224 226
-2.621065 0.376738 1.300000 246 248 247
-2.621065 0.433690 1.351153 249 250 251
-2.621065 0.384843 1.400000 249 250 251
-2.621065 0.383276 1.500000 221 227 227
-2.621065 0.433690 1.448847 249 250 251
-2.621065 0.433690 1.550302 155 155 167
-2.670763 0.433690 1.600000 155 155 167
-2.621065 0.384120 1.700000 233 237 238
-2.670634 0.433690 1.700000 233 237 238
-2.621065 0.433690 1.749569 233 237 238
-2.621065 0.533690 1.354885 247 249 249
-2.621065 0.533690 1.445115 247 249 249
-2.670702 0.533690 1.600000 223 225 222
-2.621065 0.533690 1.550362 223 225 222
-2.670780 0.533690 1.700000 251 252 252
-2.621065 0.533690 1.749716 251 252 252
-2.621065 0.633690 1.365428 179 188 195
-2.621065 0.584922 1.500000 248 249 250
-2.621065 0.583327 1.600000 223 225 222
-2.621065 0.633690 1.548768 248 249 250
-2.621065 0.583405 1.700000 251 252 252
-2.630942 0.733690 1.400000 153 171 193
-2.621065 0.733690 1.390123 153 171 193
-2.621065 0.733690 1.545648 236 241 241
-2.621065 0.743567 1.400000 153 171 193
-2.621065 0.833690 1.463197 203 210 215
-2.621065 0.785041 1.600000 254 254 254
-2.621065 0.833690 1.648649 254 254 254
-2.621065 0.933690 1.476640 160 171 181
-2.621065 0.933690 1.645741 163 173 180
-2.621065 1.033690 1.472250 169 177 187
-2.621065 0.985291 1.700000 136 150 165
-2.621065 1.033690 1.748398 136 150 165
-2.621065 1.061439 1.500000 169 177 187
-2.621065 1.133690 1.559915 138 151 164
-2.621065 1.133690 1.746819 143 156 166
-2.621065 1.233690 1.553617 173 182 189
-2.621065 1.233690 1.749125 148 163 173
-2.621065 1.280073 1.600000 173 182 189
-2.621065 1.282815 1.700000 148 163 173
-2.564518 -1.766310 3.300000 249 243 243
-2.521065 -1.809764 3.300000 249 243 243
-2.521065 -1.766310 3.256546 249 243 243
-2.521065 -1.815447 3.400000 253 249 247
-2.521065 -1.766310 3.449137 253 249 247
-2.555971 -1.666310 3.200000 230 174 173
-2.521065 -1.701217 3.200000 230 174 173
-2.521065 -1.666310 3.165093 230 174 173
-2.521065 -1.715702 3.500000 228 216 217
-2.521065 -1.666310 3.549392 228 216 217
-2.566186 -1.566310 3.000000 197 62 68
-2.521065 -1.611432 3.000000 197 62 68
-2.521065 -1.566310 2.954879 197 62 68
-2.565695 -1.566310 3.100000 203 93 97
-2.521065 -1.610941 3.100000 203 93 97
-2.560076 -1.566310 3.200000 223 160 157
-2.521065 -1.566310 3.548796 212 204 203
-2.565912 -1.466310 2.800000 195 47 55
-2.521065 -1.511157 2.800000 195 47 55
-2.521065 -1.466310 2.755153 195 47 55
-2.565910 -1.466310 2.900000 199 60 63
-2.521065 -1.511156 2.900000 199 60 63
-2.565817 -1.466310 3.000000 201 70 72
-2.521065 -1.515849 3.600000 170 163 162
-2.521065 -1.466310 3.649539 170 163 162
-2.566085 -1.366310 2.700000 199 57 62
-2.521065 -1.411330 2.700000 199 57 62
-2.521065 -1.366310 2.654980 199 57 62
-2.521065 -1.381679 3.000000 171 72 68
-2.521065 -1.366310 2.921911 197 61 64
-2.521065 -1.366310 3.074560 145 105 102
-2.521065 -1.366310 3.648893 179 176 178
-2.565261 -1.266310 2.500000 194 56 65
-2.521065 -1.310507 2.500000 194 56 65
-2.521065 -1.266310 2.455803 194 56 65
-2.521065 -1.311116 2.600000 201 65 67
-2.521065 -1.294571 2.800000 174 61 64
-2.521065 -1.266310 2.754151 174 61 64
-2.521065 -1.355792 2.900000 197 61 64
-2.521065 -1.309300 3.100000 133 129 126
-2.521065 -1.266310 3.109305 133 129 126
-2.521065 -1.315890 3.700000 210 210 207
-2.570645 -1.266310 3.700000 210 210 207
-2.521065 -1.266310 3.749580 210 210 207
-2.565295 -1.166310 2.300000 186 53 59
-2.521065 -1.210541 2.300000 186 53 59
-2.521065 -1.166310 2.255769 186 53 59
-2.521065 -1.210507 2.400000 195 62 69
-2.521065 -1.188585 2.600000 181 79 81
-2.601517 -1.166310 2.600000 183 82 81
-2.521065 -1.166310 2.571192 181 79 81
-2.521065 -1.206472 2.700000 117 85 85
-2.604185 -1.166310 2.700000 125 77 78
-2.620561 -1.166310 2.800000 105 101 98
-2.521065 -1.194902 3.000000 118 115 114
-2.521065 -1.166310 2.976010 118 115 114
-2.521065 -1.255910 3.100000 133 129 126
-2.521065 -1.166310 3.748679 172 173 174
-2.571450 -1.166310 3.800000 191 201 212
-2.521065 -1.109668 2.200000 179 56 69
-2.521065 -1.066310 2.156642 179 56 69
-2.521065 -1.084538 2.400000 185 60 70
-2.581730 -1.066310 2.400000 186 64 68
-2.521065 -1.066310 2.379197 185 60 70
-2.521065 -1.092473 2.500000 113 97 99
-2.591544 -1.066310 2.500000 125 83 87
-2.604124 -1.066310 2.600000 107 106 106
-2.612290 -1.066310 2.700000 118 115 113
-2.617668 -1.066310 2.800000 118 113 110
-2.521065 -1.076037 2.900000 122 122 122
-2.521065 -1.066310 2.876176 122 122 122
-2.521065 -1.114076 3.800000 191 142 101
-2.521065 -1.066310 3.847766 191 142 101
-2.521065 -1.008764 2.000000 169 49 63
-2.521065 -0.966310 1.957546 169 49 63
-2.521065 -1.009224 2.100000 179 55 66
-2.525948 -0.966310 2.200000 179 73 81
-2.521065 -0.966310 2.198847 179 73 81
-2.521065 -0.967443 2.200000 179 73 81
-2.521065 -0.983954 2.300000 116 95 97
-2.562253 -0.966310 2.300000 116 95 97
-2.584709 -0.966310 2.400000 111 106 107
-2.593287 -0.966310 2.500000 117 115 114
-2.602355 -0.966310 2.600000 123 120 120
-2.610532 -0.966310 2.700000 131 128 127
-2.600601 -0.966310 2.800000 103 103 104
-2.521065 -0.966310 2.824697 129 131 130
-2.568333 -0.966310 3.400000 136 101 85
-2.521065 -0.966310 3.547606 142 101 73
-2.521065 -1.024042 3.600000 145 146 150
-2.521065 -1.018998 3.700000 106 103 108
-2.521065 -1.018545 3.800000 191 142 101
-2.562624 -0.866310 1.800000 160 50 61
-2.521065 -0.907870 1.800000 160 50 61
-2.521065 -0.866310 1.758441 160 50 61
-2.521065 -0.909595 1.900000 171 53 68
-2.534768 -0.866310 2.000000 178 94 98
-2.521065 -0.866310 1.994410 178 94 98
-2.521065 -0.872082 2.000000 178 94 98
-2.521065 -0.876343 2.100000 108 95 99
-2.554500 -0.866310 2.100000 108 95 99
-2.521065 -0.950410 2.200000 179 73 81
-2.521065 -0.866310 2.164372 102 100 101
-2.554361 -0.866310 2.300000 124 120 129
-2.521065 -0.866310 2.224174 102 100 101
-2.583415 -0.866310 2.400000 128 128 135
-2.593528 -0.866310 2.500000 136 134 132
-2.602799 -0.866310 2.600000 136 138 130
-2.521065 -0.866310 2.693075 108 106 106
-2.521065 -0.872384 2.700000 108 106 106
-2.521065 -0.943553 2.800000 129 131 130
-2.571746 -0.866310 3.200000 187 181 189
-2.521065 -0.866310 3.145654 190 179 174
-2.521065 -0.929821 3.200000 247 243 242
-2.521065 -0.919551 3.300000 179 176 176
-2.521065 -0.919042 3.400000 136 101 85
-2.521065 -0.918705 3.500000 142 101 73
-2.521065 -0.808895 1.700000 158 47 61
-2.521065 -0.766310 1.657415 158 47 61
-2.521065 -0.768458 1.900000 111 96 100
-2.528077 -0.766310 1.900000 111 96 100
-2.521065 -0.766310 1.839906 170 63 73
-2.540583 -0.766310 2.000000 117 114 112
-2.541617 -0.766310 2.100000 121 118 116
-2.521065 -0.815230 2.200000 124 117 117
-2.541252 -0.766310 2.200000 124 117 117
-2.535924 -0.766310 2.300000 154 150 147
-2.579735 -0.766310 2.400000 159 161 164
-2.521065 -0.766310 2.490876 141 143 137
-2.521065 -0.774295 2.500000 141 143 137
-2.521065 -0.835821 2.600000 134 135 130
-2.591762 -0.766310 3.200000 119 84 80
-2.521065 -0.766310 3.140404 155 134 130
-2.562724 -0.666310 1.500000 159 43 51
-2.521065 -0.707970 1.500000 159 43 51
-2.521065 -0.666310 1.458340 159 43 51
-2.521065 -0.671915 1.600000 165 61 76
-2.521065 -0.702709 1.900000 122 120 119
-2.534838 -0.666310 2.000000 138 134 130
-2.521065 -0.666310 1.922893 122 120 119
-2.521065 -0.666310 2.016311 138 134 130
-2.521065 -0.742281 2.100000 121 118 116
-2.521065 -0.760153 2.200000 124 117 117
-2.521065 -0.760440 2.300000 154 150 147
-2.593282 -0.666310 2.400000 190 174 150
-2.521065 -0.666310 2.379594 158 156 156
-2.521065 -0.666310 2.429222 158 156 156
-2.521065 -0.666310 2.948592 180 166 153
-2.521065 -0.727178 3.000000 197 184 183
-2.521065 -0.725907 3.100000 155 134 130
-2.521065 -0.573921 1.400000 146 54 68
-2.521065 -0.566310 1.392389 146 54 68
-2.528289 -0.566310 1.900000 58 53 64
-2.521065 -0.566310 1.871251 58 53 64
-2.521065 -0.631661 1.900000 122 120 119
-2.521065 -0.641261 2.000000 138 134 130
-2.521065 -0.566310 1.915765 58 53 64
-2.569235 -0.566310 2.300000 82 88 109
-2.521065 -0.645271 2.400000 158 156 156
-2.575804 -0.566310 2.900000 88 70 64
-2.521065 -0.566310 2.843602 103 83 85
-2.521065 -0.617718 2.900000 180 166 153
-2.533488 -0.466310 1.200000 146 56 58
-2.521065 -0.478733 1.200000 146 56 58
-2.521065 -0.466310 1.187577 146 56 58
-2.521065 -0.476120 1.300000 97 92 98
-2.523343 -0.466310 1.800000 144 146 139
-2.521065 -0.466310 1.781642 144 146 139
-2.521065 -0.477054 1.800000 144 146 139
-2.537474 -0.466310 1.900000 127 131 129
-2.521065 -0.509383 2.000000 132 137 137
-2.549075 -0.466310 2.000000 132 137 137
-2.521065 -0.466310 2.011483 132 137 137
-2.569020 -0.466310 2.300000 141 134 136
-2.569839 -0.466310 2.400000 211 197 183
-2.570749 -0.466310 2.500000 217 188 153
-2.521065 -0.466310 2.549685 217 188 153
-2.521065 -0.527153 2.600000 158 126 110
-2.521065 -0.524447 2.700000 113 92 87
-2.521065 -0.522709 2.800000 103 83 85
-2.521065 -0.366310 1.189431 222 222 221
-2.529557 -0.366310 1.800000 129 131 125
-2.521065 -0.366310 1.734149 125 130 125
-2.537660 -0.366310 1.900000 122 129 126
-2.521065 -0.366310 1.904856 122 129 126
-2.521065 -0.457703 2.000000 132 137 137
-2.570273 -0.366310 2.300000 236 217 193
-2.521065 -0.366310 2.349209 236 217 193
-2.521065 -0.417535 2.400000 211 197 183
-2.521065 -0.416626 2.500000 217 188 153
-2.569105 -0.266310 1.200000 253 253 253
-2.521065 -0.266310 1.151960 253 253 253
-2.521228 -0.266310 1.700000 138 147 142
-2.521065 -0.266310 1.698793 138 147 142
-2.521065 -0.269770 1.700000 138 147 142
-2.531934 -0.266310 1.800000 125 136 137
-2.521065 -0.266310 1.803584 125 136 137
-2.521065 -0.361080 1.900000 122 129 126
-2.568011 -0.266310 2.100000 253 252 247
-2.521065 -0.266310 2.146946 253 252 247
-2.521065 -0.318126 2.200000 122 114 128
-2.521065 -0.317102 2.300000 236 217 193
-2.569363 -0.166310 1.200000 255 255 255
-2.521065 -0.166310 1.151702 255 255 255
-2.525728 -0.166310 1.700000 105 115 119
-2.521065 -0.166310 1.682098 105 115 119
-2.521065 -0.166310 1.701489 105 115 119
-2.521065 -0.262768 1.800000 125 136 137
-2.521065 -0.166310 1.948150 214 204 202
-2.521065 -0.218000 2.000000 150 146 143
-2.521065 -0.219364 2.100000 253 252 247
-2.569625 -0.066310 1.200000 254 254 254
-2.521065 -0.066310 1.151439 254 254 254
-2.569189 -0.066310 1.300000 254 254 254
-2.592805 -0.066310 1.600000 190 189 185
-2.521065 -0.066310 1.514517 189 190 187
-2.521065 -0.161515 1.600000 155 160 157
-2.604053 -0.066310 1.700000 123 122 127
-2.521065 -0.066310 1.756142 64 69 82
-2.570978 -0.066310 1.900000 64 63 71
-2.521065 -0.066310 1.949913 64 63 71
-2.567562 0.033690 1.200000 251 251 251
-2.521065 0.033690 1.153503 251 251 251
-2.570559 0.033690 1.300000 255 255 255
-2.521065 -0.012153 1.600000 83 80 88
-2.521065 0.033690 1.645843 83 80 88
-2.521065 -0.022452 1.800000 64 69 82
-2.521065 -0.016397 1.900000 64 63 71
-2.521065 0.080187 1.200000 251 251 251
-2.521065 0.133690 1.250288 251 251 251
-2.570776 0.133690 1.300000 251 251 251
-2.570290 0.133690 1.400000 255 255 255
-2.570603 0.133690 1.500000 82 80 88
-2.521065 0.133690 1.549538 82 80 88
-2.521065 0.079532 1.600000 83 80 88
-2.521065 0.233690 1.251914 249 249 250
-2.570829 0.233690 1.400000 254 254 254
-2.521065 0.186244 1.600000 68 44 65
-2.521065 0.233690 1.647446 68 44 65
-2.521065 0.333690 1.257786 252 252 252
-2.521065 0.333690 1.342214 252 252 252
-2.521065 0.283455 1.400000 254 254 254
-2.521065 0.333690 1.454988 222 225 226
-2.521065 0.283991 1.700000 69 45 66
-2.570764 0.333690 1.700000 69 45 66
-2.521065 0.333690 1.749699 69 45 66
-2.547686 0.433690 1.300000 171 182 184
-2.521065 0.433690 1.273379 171 182 184
-2.521065 0.385549 1.400000 251 251 252
-2.521065 0.433690 1.448141 251 251 252
-2.521065 0.378702 1.500000 222 225 226
-2.521065 0.433690 1.555361 185 179 185
-2.521065 0.433690 1.748117 86 51 68
-2.521065 0.460311 1.300000 171 182 184
-2.521065 0.533690 1.355622 251 252 251
-2.521065 0.533690 1.444378 251 252 251
-2.521065 0.533690 1.555138 243 243 242
-2.521065 0.533690 1.746287 151 109 121
-2.521065 0.633690 1.367454 191 201 206
-2.521065 0.585710 1.500000 250 250 250
-2.564275 0.633690 1.600000 245 245 245
-2.566330 0.633690 1.700000 206 189 196
-2.521065 0.584998 1.800000 118 55 74
-2.569757 0.633690 1.800000 118 55 74
-2.521065 0.633690 1.848692 118 55 74
-2.521065 0.733690 1.389420 173 186 195
-2.521065 0.733690 1.546095 251 252 252
-2.521065 0.676900 1.600000 245 245 245
-2.521065 0.733690 1.654715 244 245 243
-2.566350 0.733690 1.700000 244 245 243
-2.568056 0.733690 1.800000 164 122 137
-2.521065 0.733690 1.846992 164 122 137
-2.521065 0.775566 1.400000 173 186 195
-2.521065 0.833690 1.422959 166 173 187
-2.521065 0.785665 1.600000 254 254 254
-2.564566 0.833690 1.700000 245 245 245
-2.567051 0.833690 1.800000 214 206 209
-2.521065 0.784936 1.900000 131 118 133
-2.569819 0.833690 1.900000 131 118 133
-2.521065 0.833690 1.948754 131 118 133
-2.521065 0.933690 1.478662 143 158 169
-2.521065 0.933690 1.645977 193 199 204
-2.521065 0.877191 1.700000 245 245 245
-2.521065 0.933690 1.754135 252 253 253
-2.566929 0.933690 1.800000 252 253 253
-2.567808 0.933690 1.900000 175 181 190
-2.521065 0.933690 1.946743 175 181 190
-2.521065 1.033690 1.474795 147 161 171
-2.521065 0.985912 1.700000 156 169 182
-2.521065 0.979555 1.800000 252 253 253
-2.521065 1.033690 1.747778 156 169 182
-2.521065 1.033690 1.853742 211 216 221
-2.567322 1.033690 1.900000 211 216 221
-2.521065 0.985101 2.000000 132 147 161
-2.569654 1.033690 2.000000 132 147 161
-2.521065 1.033690 2.048589 132 147 161
-2.557208 1.133690 1.500000 181 186 195
-2.521065 1.133690 1.463857 181 186 195
-2.521065 1.133690 1.746242 148 164 175
-2.570924 1.133690 1.900000 249 249 249
-2.521065 1.133690 1.850140 249 249 249
-2.521065 1.133690 1.949860 249 249 249
-2.521065 1.082279 2.000000 132 147 161
-2.521065 1.169833 1.500000 181 186 195
-2.521065 1.233690 1.554667 154 168 177
-2.521065 1.233690 1.748385 144 162 173
-2.521065 1.183550 1.900000 249 249 249
-2.521065 1.279023 1.600000 154 168 177
-2.521065 1.282075 1.700000 144 162 173
-2.421064 -1.809507 3.300000 253 251 250
-2.421064 -1.766310 3.256803 253 251 250
-2.421064 -1.815114 3.400000 253 254 252
-2.421064 -1.766310 3.448804 253 254 252
-2.421064 -1.699574 3.200000 251 243 241
-2.421064 -1.666310 3.166737 251 243 241
-2.421064 -1.715628 3.500000 230 217 211
-2.421064 -1.666310 3.549318 230 217 211
-2.421064 -1.597890 3.000000 207 96 99
-2.421064 -1.566310 2.968420 207 96 99
-2.421064 -1.584832 3.100000 236 190 188
-2.421064 -1.566310 3.548630 196 185 186
-2.421064 -1.498918 2.800000 195 44 56
-2.421064 -1.466310 2.767393 195 44 56
-2.421064 -1.498800 2.900000 200 72 76
-2.421064 -1.515726 3.600000 170 164 163
-2.421064 -1.466310 3.649416 170 164 163
-2.421064 -1.400041 2.700000 199 56 64
-2.421064 -1.366310 2.666269 199 56 64
-2.509394 -1.366310 2.900000 197 61 64
-2.421064 -1.366310 2.861450 191 61 61
-2.421064 -1.405671 2.900000 191 61 61
-2.421064 -1.391585 3.000000 161 82 84
-2.421064 -1.366310 3.077077 145 116 111
-2.421064 -1.366310 3.648576 174 171 174
-2.421064 -1.300330 2.500000 196 54 62
-2.421064 -1.266310 2.465980 196 54 62
-2.421064 -1.299923 2.600000 202 62 67
-2.421064 -1.305717 2.700000 199 58 67
-2.467746 -1.266310 2.700000 199 58 67
-2.421064 -1.266310 2.660467 199 58 67
-2.421064 -1.321157 2.800000 199 67 69
-2.421064 -1.321224 3.100000 145 116 111
-2.421064 -1.266310 3.117665 132 124 121
-2.421064 -1.315957 3.700000 173 172 168
-2.421064 -1.266310 3.749647 173 172 168
-2.421064 -1.200555 2.300000 189 54 60
-2.421064 -1.166310 2.265755 189 54 60
-2.421064 -1.200759 2.400000 197 64 66
-2.421064 -1.166310 2.509907 199 65 68
-2.421064 -1.218729 2.600000 202 62 67
-2.421064 -1.177606 3.000000 126 123 123
-2.421064 -1.166310 2.993198 126 123 123
-2.421064 -1.244491 3.100000 132 124 121
-2.421064 -1.215991 3.800000 175 185 195
-2.470745 -1.166310 3.800000 175 185 195
-2.421064 -1.166310 3.849680 175 185 195
-2.421064 -1.100586 2.200000 185 62 70
-2.421064 -1.066310 2.165724 185 62 70
-2.421064 -1.066310 2.335561 194 62 72
-2.421064 -1.114039 2.400000 176 65 69
-2.421064 -1.155754 2.500000 199 65 68
-2.496868 -1.066310 2.900000 122 122 122
-2.421064 -1.066310 2.950603 157 153 150
-2.470714 -1.066310 3.900000 160 169 182
-2.421064 -1.115959 3.900000 160 169 182
-2.421064 -1.066310 3.949649 160 169 182
-2.421064 -1.000468 2.000000 172 51 65
-2.421064 -0.966310 1.965842 172 51 65
-2.421064 -0.998399 2.100000 182 59 69
-2.421064 -1.009587 2.200000 183 63 68
-2.515036 -0.970483 2.195649 179 73 81
-2.421064 -0.966310 2.154287 183 63 68
-2.421064 -1.028474 2.300000 194 62 72
-2.423864 -0.966310 2.900000 140 123 123
-2.421064 -0.966310 2.901728 140 123 123
-2.473459 -0.966310 3.500000 142 101 73
-2.421064 -0.966310 3.441270 144 104 83
-2.421064 -1.031874 3.500000 172 169 178
-2.421064 -1.025754 3.600000 143 142 143
-2.421064 -1.020958 3.700000 174 180 179
-2.421064 -1.017321 3.800000 156 163 172
-2.421064 -1.016661 3.900000 160 169 182
-2.421064 -0.899441 1.800000 166 55 64
-2.421064 -0.866310 1.766869 166 55 64
-2.421064 -0.900366 1.900000 173 54 68
-2.421064 -0.903147 2.000000 164 62 73
-2.497013 -0.881865 1.984553 178 94 98
-2.421064 -0.866310 1.963057 164 62 73
-2.421064 -0.897614 2.100000 91 85 94
-2.510252 -0.866310 2.200000 102 100 101
-2.421064 -0.883464 2.700000 119 114 114
-2.421064 -0.866310 2.678479 119 114 114
-2.435174 -0.866310 2.800000 127 129 135
-2.421064 -0.866310 2.763513 127 129 135
-2.421064 -0.866310 2.827354 127 129 135
-2.421064 -0.960712 2.900000 140 123 123
-2.471050 -0.866310 3.200000 169 144 139
-2.421064 -0.866310 3.249986 169 144 139
-2.421064 -0.921659 3.300000 150 131 122
-2.421064 -0.925040 3.400000 144 104 83
-2.421064 -0.801531 1.700000 165 57 70
-2.421064 -0.766310 1.664779 165 57 70
-2.516325 -0.766310 1.800000 170 63 73
-2.421064 -0.766310 1.770862 164 72 82
-2.421064 -0.797403 1.800000 164 72 82
-2.421064 -0.799805 1.900000 108 103 108
-2.421064 -0.792110 2.500000 114 115 114
-2.421064 -0.766310 2.473449 114 115 114
-2.454797 -0.766310 2.600000 114 116 113
-2.421064 -0.766310 2.538937 114 115 114
-2.421064 -0.766310 2.683417 137 136 137
-2.421064 -0.852546 2.800000 127 129 135
-2.469637 -0.766310 3.200000 81 75 75
-2.421064 -0.766310 3.248573 81 75 75
-2.421064 -0.700779 1.500000 160 46 62
-2.421064 -0.666310 1.465531 160 46 62
-2.493545 -0.666310 1.600000 165 61 76
-2.421064 -0.666310 1.577083 165 56 71
-2.421064 -0.692462 1.700000 105 102 103
-2.505251 -0.666310 1.700000 107 99 104
-2.516097 -0.666310 1.800000 113 110 113
-2.517297 -0.666310 1.900000 122 120 119
-2.421064 -0.698906 2.100000 139 134 135
-2.421064 -0.666310 2.064563 139 134 135
-2.421064 -0.728491 2.200000 140 138 136
-2.436623 -0.666310 2.300000 156 155 158
-2.421064 -0.666310 2.281321 156 155 158
-2.421064 -0.666666 2.400000 150 149 142
-2.421064 -0.666310 2.398686 150 149 142
-2.422012 -0.666310 2.400000 150 149 142
-2.421064 -0.730664 2.600000 114 116 113
-2.470902 -0.666310 3.000000 50 43 51
-2.471054 -0.666310 3.100000 29 28 33
-2.421064 -0.666310 3.149990 29 28 33
-2.421064 -0.717738 3.200000 81 75 75
-2.477150 -0.566310 1.400000 146 54 68
-2.421064 -0.585823 1.500000 104 100 105
-2.480272 -0.566310 1.500000 85 83 91
-2.492743 -0.566310 1.600000 115 112 112
-2.492065 -0.566310 1.700000 119 117 114
-2.503480 -0.566310 1.800000 158 144 116
-2.421064 -0.566310 1.933258 122 126 123
-2.421064 -0.630195 2.000000 168 161 157
-2.421064 -0.643660 2.300000 156 155 158
-2.477463 -0.566310 2.800000 103 83 85
-2.421064 -0.566310 2.734676 109 86 81
-2.421064 -0.625053 2.800000 191 165 152
-2.421064 -0.566310 2.850140 36 34 35
-2.470924 -0.566310 2.900000 36 34 35
-2.421064 -0.566310 2.949860 36 34 35
-2.421064 -0.616473 3.000000 50 43 51
-2.421064 -0.616321 3.100000 29 28 33
-2.448102 -0.466310 1.200000 127 51 63
-2.463560 -0.466310 1.300000 74 72 84
-2.471021 -0.466310 1.400000 110 107 111
-2.481588 -0.466310 1.500000 125 123 124
-2.495779 -0.466310 1.600000 128 128 128
-2.510992 -0.466310 1.700000 181 175 166
-2.496410 -0.466310 2.000000 132 137 137
-2.421064 -0.466310 1.956998 107 104 115
-2.421064 -0.466310 2.549371 180 171 176
-2.421064 -0.534381 2.600000 158 135 122
-2.421064 -0.531634 2.700000 109 86 81
-2.421064 -0.516451 2.900000 36 34 35
-2.442911 -0.366310 1.200000 105 103 109
-2.439541 -0.366310 1.300000 115 113 115
-2.431395 -0.366310 1.400000 166 163 154
-2.487390 -0.366310 1.500000 177 174 166
-2.502019 -0.366310 1.600000 136 135 134
-2.516787 -0.366310 1.700000 125 130 125
-2.514343 -0.366310 1.900000 122 129 126
-2.421064 -0.431305 1.900000 129 131 130
-2.421064 -0.366310 1.832853 136 144 141
-2.470277 -0.366310 2.400000 208 194 190
-2.470739 -0.366310 2.500000 110 96 103
-2.421064 -0.366310 2.549674 110 96 103
-2.470610 -0.366310 3.200000 83 18 24
-2.421064 -0.415855 3.200000 83 18 24
-2.421064 -0.366310 3.150455 83 18 24
-2.421064 -0.366310 3.249545 83 18 24
-2.464014 -0.266310 1.100000 247 247 246
-2.421064 -0.309260 1.100000 247 247 246
-2.421064 -0.266310 1.057051 247 247 246
-2.421064 -0.360711 1.200000 105 103 109
-2.428234 -0.266310 1.300000 187 183 180
-2.421064 -0.266310 1.297651 187 183 180
-2.430185 -0.266310 1.400000 193 191 185
-2.474470 -0.266310 1.500000 198 195 188
-2.507897 -0.266310 1.600000 151 158 153
-2.421064 -0.266310 1.733327 133 142 138
-2.515723 -0.266310 1.800000 125 136 137
-2.421064 -0.330051 1.800000 136 144 141
-2.469671 -0.266310 2.200000 205 190 188
-2.470330 -0.266310 2.300000 145 120 116
-2.421064 -0.266310 2.349265 145 120 116
-2.421064 -0.317098 2.400000 208 194 190
-2.421064 -0.316636 2.500000 110 96 103
-2.421064 -0.316765 3.200000 83 18 24
-2.421064 -0.223361 1.100000 247 247 246
-2.421064 -0.166310 1.156754 253 253 253
-2.425961 -0.166310 1.300000 191 188 184
-2.421064 -0.166310 1.298665 191 188 184
-2.429649 -0.166310 1.400000 196 192 185
-2.453944 -0.166310 1.500000 195 195 185
-2.502259 -0.166310 1.600000 155 160 157
-2.518672 -0.166310 1.700000 105 115 119
-2.421064 -0.231774 1.700000 133 142 138
-2.421064 -0.166310 1.632675 122 131 134
-2.469285 -0.166310 2.000000 168 157 155
-2.470759 -0.166310 2.100000 158 120 102
-2.421064 -0.166310 2.149695 158 120 102
-2.421064 -0.217703 2.200000 205 190 188
-2.421064 -0.217045 2.300000 145 120 116
-2.421064 -0.066310 1.156359 255 255 255
-2.421064 -0.162724 1.300000 191 188 184
-2.427302 -0.066310 1.400000 182 181 177
-2.421064 -0.066310 1.395301 182 181 177
-2.506547 -0.066310 1.500000 189 190 187
-2.421064 -0.066310 1.648915 88 91 106
-2.441551 -0.066310 1.700000 80 84 92
-2.470521 -0.066310 2.000000 74 63 76
-2.421064 -0.066310 2.049456 74 63 76
-2.421064 -0.116615 2.100000 158 120 102
-2.469754 -0.066310 3.500000 67 50 45
-2.421064 -0.135342 3.500000 76 20 21
-2.421064 -0.066310 3.451310 67 50 45
-2.421064 -0.066310 3.548690 67 50 45
-2.421064 0.033690 1.156329 251 251 251
-2.484506 0.033690 1.400000 174 181 186
-2.421064 0.033690 1.344424 255 255 255
-2.421064 0.033690 1.461410 80 77 84
-2.421064 -0.004900 1.500000 80 77 84
-2.421064 -0.043583 1.600000 88 91 106
-2.469966 0.033690 1.700000 69 67 75
-2.421064 -0.022591 1.800000 66 68 79
-2.421064 0.033690 1.748902 69 67 75
-2.421064 -0.017448 1.900000 67 64 75
-2.421064 -0.016854 2.000000 74 63 76
-2.469384 0.033690 3.200000 85 30 35
-2.421064 -0.014630 3.200000 85 30 35
-2.421064 0.033690 3.151680 85 30 35
-2.421064 0.033690 3.248320 85 30 35
-2.421064 -0.017621 3.500000 67 50 45
-2.457615 0.133690 1.200000 247 247 247
-2.421064 0.133690 1.163449 247 247 247
-2.421064 0.088388 1.400000 253 254 253
-2.421064 0.133690 1.548895 82 79 89
-2.421064 0.079305 1.600000 84 83 89
-2.421064 0.082591 1.700000 69 67 75
-2.421064 0.082009 3.200000 85 30 35
-2.421064 0.170241 1.200000 247 247 247
-2.421064 0.233690 1.255129 250 251 251
-2.421064 0.187789 1.600000 62 44 65
-2.421064 0.233690 1.645901 62 44 65
-2.421064 0.333690 1.259486 253 253 253
-2.466643 0.333690 1.400000 251 251 251
-2.421064 0.284380 1.700000 111 49 69
-2.421064 0.333690 1.749310 111 49 69
-2.421064 0.433690 1.271968 245 246 246
-2.466486 0.433690 1.500000 247 249 250
-2.421064 0.433690 1.747221 100 46 67
-2.421064 0.510147 1.300000 151 163 171
-2.421064 0.533690 1.313942 151 163 171
-2.467446 0.533690 1.500000 249 251 252
-2.421064 0.484074 1.800000 112 48 67
-2.470680 0.533690 1.800000 112 48 67
-2.421064 0.533690 1.849616 112 48 67
-2.421064 0.633690 1.368854 239 240 240
-2.421064 0.633690 1.847654 105 48 68
-2.421064 0.733690 1.395334 196 206 209
-2.468117 0.733690 1.600000 248 252 253
-2.421064 0.683768 1.900000 141 68 79
-2.470986 0.733690 1.900000 141 68 79
-2.421064 0.733690 1.949922 141 68 79
-2.421064 0.760456 1.400000 196 206 209
-2.421064 0.833690 1.421743 146 158 169
-2.421064 0.833690 1.948329 104 112 126
-2.428904 0.933690 1.400000 171 180 187
-2.421064 0.894845 1.400000 171 180 187
-2.421064 0.933690 1.392161 171 180 187
-2.469005 0.933690 1.700000 248 252 254
-2.421064 0.883911 2.000000 94 108 125
-2.470843 0.933690 2.000000 94 108 125
-2.421064 0.933690 2.049779 94 108 125
-2.421064 0.941529 1.400000 171 180 187
-2.421064 1.033690 1.476930 153 164 174
-2.467886 1.033690 1.800000 250 251 253
-2.421064 1.033690 2.047566 123 135 152
-2.421064 1.133690 1.466045 150 160 170
-2.470159 1.133690 1.800000 174 189 197
-2.421064 1.133690 1.949357 125 141 155
-2.421064 1.081256 2.000000 123 135 152
-2.421064 1.167644 1.500000 150 160 170
-2.421064 1.233690 1.555960 164 179 192
-2.421064 1.233690 1.747496 133 152 166
-2.421064 1.182785 1.800000 174 189 197
-2.421064 1.183047 1.900000 125 141 155
-2.470178 1.333690 1.600000 153 163 178
-2.421064 1.333690 1.550887 153 163 178
-2.421064 1.333690 1.649113 153 163 178
-2.421064 1.281185 1.700000 133 152 166
-2.421064 1.382803 1.600000 153 163 178
-2.321064 -1.811326 3.300000 234 222 217
-2.321064 -1.766310 3.254984 234 222 217
-2.321064 -1.814776 3.400000 210 178 183
-2.321064 -1.766310 3.448466 210 178 183
-2.344707 -1.666310 3.100000 253 252 250
-2.321064 -1.689953 3.100000 253 252 250
-2.321064 -1.666310 3.076358 253 252 250
-2.321064 -1.699226 3.200000 254 254 251
-2.321064 -1.715426 3.500000 215 202 198
-2.321064 -1.666310 3.549116 215 202 198
-2.321064 -1.568681 3.000000 242 223 219
-2.321064 -1.566310 2.997629 242 223 219
-2.321064 -1.616119 3.600000 132 120 134
-2.370873 -1.566310 3.600000 132 120 134
-2.321064 -1.566310 3.649809 132 120 134
-2.321064 -1.478851 2.800000 207 77 80
-2.321064 -1.466310 2.787459 207 77 80
-2.330694 -1.466310 2.900000 226 165 164
-2.321064 -1.466310 2.873658 226 165 164
-2.321064 -1.538005 3.000000 242 223 219
-2.333194 -1.466310 3.000000 229 179 179
-2.321064 -1.466310 3.032060 229 179 179
-2.321064 -1.466310 3.649197 138 128 142
-2.336464 -1.366310 2.600000 192 42 51
-2.321064 -1.381710 2.600000 192 42 51
-2.321064 -1.366310 2.584600 192 42 51
-2.321064 -1.380362 2.700000 198 64 68
-2.321064 -1.366310 2.827747 202 80 77
-2.321064 -1.366310 3.085598 158 143 141
-2.321064 -1.366310 3.648194 169 163 160
-2.321064 -1.283662 2.500000 198 58 60
-2.321064 -1.266310 2.482648 198 58 60
-2.321064 -1.266310 2.619623 200 64 69
-2.321064 -1.348927 2.700000 198 64 68
-2.321064 -1.349939 2.800000 202 80 77
-2.321064 -1.340314 3.100000 158 143 141
-2.321064 -1.266310 3.140089 139 135 134
-2.321064 -1.315860 3.700000 155 154 154
-2.321064 -1.266310 3.749550 155 154 154
-2.321064 -1.185681 2.300000 193 57 66
-2.321064 -1.166310 2.280630 193 57 66
-2.321064 -1.185071 2.400000 199 65 67
-2.321064 -1.243436 2.500000 198 58 60
-2.413090 -1.166310 2.500000 199 65 68
-2.321064 -1.166310 2.424598 199 65 67
-2.321064 -1.248675 2.600000 200 64 69
-2.397507 -1.166310 3.000000 126 123 123
-2.321064 -1.166310 3.061122 146 143 141
-2.321064 -1.214160 3.100000 146 143 141
-2.321064 -1.215498 3.800000 167 172 174
-2.321064 -1.166310 3.849188 167 172 174
-2.342737 -1.066310 2.100000 184 50 59
-2.321064 -1.087982 2.100000 184 50 59
-2.321064 -1.066310 2.078328 184 50 59
-2.321064 -1.087496 2.200000 196 62 68
-2.321064 -1.125591 2.300000 193 57 66
-2.377975 -1.066310 2.300000 194 62 72
-2.321064 -1.066310 2.243456 196 62 68
-2.321064 -1.144072 2.400000 199 65 67
-2.321064 -1.071952 3.000000 170 164 165
-2.321064 -1.066310 2.996168 170 164 165
-2.371416 -1.066310 3.900000 160 169 182
-2.321064 -1.066310 3.849217 176 190 198
-2.321064 -0.988456 2.000000 177 54 66
-2.321064 -0.966310 1.977854 177 54 66
-2.321064 -0.966310 2.101290 182 60 71
-2.321064 -1.038723 2.200000 196 62 68
-2.321064 -0.966310 2.920285 144 132 134
-2.321064 -0.966310 3.410836 87 74 78
-2.321064 -1.033726 3.500000 173 171 163
-2.353923 -0.966310 3.600000 120 123 141
-2.321064 -0.966310 3.567142 120 123 141
-2.321064 -0.966310 3.632858 120 123 141
-2.321064 -1.021020 3.700000 168 179 180
-2.321064 -1.017093 3.800000 176 190 198
-2.321064 -0.889071 1.800000 164 47 63
-2.321064 -0.866310 1.777239 164 47 63
-2.321064 -0.883237 1.900000 177 57 69
-2.321064 -0.866310 1.930277 177 57 69
-2.321064 -0.928567 2.000000 177 54 66
-2.321064 -0.964867 2.100000 182 60 71
-2.401505 -0.866310 2.700000 119 114 114
-2.321064 -0.929388 2.900000 144 132 134
-2.321064 -0.866310 2.852115 192 178 176
-2.321064 -0.866310 3.249080 186 180 182
-2.321064 -0.929650 3.300000 150 132 127
-2.321064 -0.955475 3.400000 87 74 78
-2.321064 -0.933452 3.600000 120 123 141
-2.321064 -0.787598 1.700000 172 57 69
-2.321064 -0.766310 1.678713 172 57 69
-2.321064 -0.828421 1.800000 164 47 63
-2.368933 -0.804336 1.761333 165 60 72
-2.321064 -0.766310 1.735892 172 57 69
-2.321064 -0.838257 1.900000 177 57 69
-2.401557 -0.766310 2.500000 114 115 114
-2.380211 -0.766310 2.700000 137 136 137
-2.321064 -0.801142 2.800000 179 163 161
-2.321064 -0.766310 2.736537 159 161 160
-2.321064 -0.766310 3.249071 102 86 80
-2.321064 -0.691621 1.500000 162 55 69
-2.321064 -0.666310 1.474690 162 55 69
-2.321064 -0.666310 1.546654 162 55 69
-2.321064 -0.728120 1.700000 172 57 69
-2.340804 -0.666310 2.100000 144 146 143
-2.361921 -0.666310 2.200000 147 148 151
-2.321064 -0.670823 2.400000 159 156 153
-2.321064 -0.666310 2.394322 159 156 153
-2.321064 -0.686039 2.500000 180 177 161
-2.321064 -0.716515 2.600000 133 132 126
-2.321064 -0.751212 2.700000 159 161 160
-2.321064 -0.746048 2.800000 179 163 161
-2.363904 -0.666310 2.800000 146 116 108
-2.321064 -0.666310 2.745136 165 157 156
-2.321064 -0.666310 2.838725 146 116 108
-2.368733 -0.666310 3.200000 57 19 21
-2.321064 -0.666310 3.247669 57 19 21
-2.321064 -0.616961 1.500000 162 55 69
-2.333967 -0.566310 1.900000 138 137 131
-2.321064 -0.573552 1.900000 138 137 131
-2.321064 -0.566310 1.893270 138 137 131
-2.321064 -0.609657 2.000000 236 208 165
-2.321064 -0.658757 2.100000 144 146 143
-2.334374 -0.566310 2.200000 142 133 122
-2.321064 -0.566310 2.181113 142 133 122
-2.321064 -0.576748 2.300000 174 165 156
-2.321064 -0.566310 2.263510 174 165 156
-2.386388 -0.566310 2.700000 109 86 81
-2.321064 -0.566310 2.622368 120 101 97
-2.321064 -0.636091 2.700000 165 157 156
-2.369576 -0.625597 2.744289 165 157 156
-2.321064 -0.629161 2.800000 146 116 108
-2.321064 -0.566310 2.752894 57 49 54
-2.368170 -0.566310 2.800000 57 49 54
-2.368247 -0.566310 3.000000 67 30 30
-2.368096 -0.566310 3.100000 71 18 20
-2.368001 -0.566310 3.200000 74 19 20
-2.321064 -0.615410 3.300000 73 15 17
-2.370165 -0.566310 3.300000 73 15 17
-2.321064 -0.566310 3.349100 73 15 17
-2.321064 -0.549660 1.900000 138 137 131
-2.321064 -0.466310 1.929800 109 110 120
-2.321064 -0.549750 2.200000 142 133 122
-2.368949 -0.466310 2.600000 76 74 84
-2.321064 -0.514382 2.700000 44 23 26
-2.369136 -0.466310 2.700000 44 23 26
-2.368767 -0.466310 2.800000 76 21 22
-2.368489 -0.466310 2.900000 74 19 23
-2.368313 -0.466310 3.000000 77 20 21
-2.368299 -0.466310 3.100000 76 17 21
-2.367955 -0.466310 3.200000 80 19 21
-2.368547 -0.466310 3.300000 81 18 19
-2.321064 -0.466310 3.347482 81 18 19
-2.357352 -0.366310 1.100000 249 249 247
-2.321064 -0.402598 1.100000 249 249 247
-2.321064 -0.366310 1.063712 249 249 247
-2.321064 -0.366310 1.169539 105 101 105
-2.321064 -0.434639 1.900000 109 110 120
-2.321064 -0.366310 1.832448 105 111 110
-2.369371 -0.366310 2.600000 80 21 23
-2.369327 -0.366310 2.700000 82 20 23
-2.368773 -0.366310 2.800000 82 21 24
-2.368616 -0.366310 2.900000 81 20 22
-2.368490 -0.366310 3.000000 83 21 24
-2.368203 -0.366310 3.100000 82 20 23
-2.367684 -0.366310 3.300000 84 20 23
-2.321064 -0.415385 3.400000 81 17 22
-2.370140 -0.366310 3.400000 81 17 22
-2.321064 -0.366310 3.449075 81 17 22
-2.321064 -0.266310 1.063858 252 252 251
-2.321064 -0.266310 1.174011 196 194 193
-2.347362 -0.266310 1.200000 196 194 193
-2.321064 -0.341650 1.800000 105 111 110
-2.321064 -0.266310 1.745700 124 132 131
-2.369484 -0.266310 2.400000 92 32 34
-2.369440 -0.266310 2.500000 81 41 45
-2.369550 -0.266310 2.600000 92 25 28
-2.369545 -0.266310 2.700000 92 22 24
-2.368892 -0.266310 2.800000 92 22 25
-2.368744 -0.266310 2.900000 86 22 23
-2.368744 -0.266310 3.000000 85 22 25
-2.368158 -0.266310 3.100000 86 21 24
-2.368048 -0.266310 3.200000 85 22 24
-2.367711 -0.266310 3.300000 85 20 23
-2.368427 -0.266310 3.400000 83 21 23
-2.321064 -0.266310 3.447362 83 21 23
-2.357639 -0.166310 1.100000 253 253 253
-2.321064 -0.166310 1.063426 253 253 253
-2.321064 -0.219806 1.200000 196 194 193
-2.321064 -0.166310 1.252536 193 190 186
-2.366542 -0.166310 1.600000 98 104 114
-2.321064 -0.195122 1.600000 98 104 114
-2.321064 -0.166310 1.569242 98 104 114
-2.321064 -0.211227 1.700000 156 140 140
-2.370468 -0.166310 2.200000 86 39 52
-2.370273 -0.166310 2.300000 75 49 60
-2.369645 -0.166310 2.400000 105 37 37
-2.369476 -0.166310 2.500000 93 33 36
-2.369559 -0.166310 2.600000 95 30 32
-2.369502 -0.166310 2.700000 96 28 30
-2.369449 -0.166310 2.800000 90 22 23
-2.368822 -0.166310 2.900000 86 22 26
-2.368726 -0.166310 3.000000 87 24 26
-2.368338 -0.166310 3.100000 89 30 31
-2.369072 -0.166310 3.200000 80 26 24
-2.368578 -0.166310 3.300000 83 38 37
-2.367717 -0.166310 3.400000 85 43 42
-2.321064 -0.215754 3.500000 83 43 40
-2.390737 -0.166310 3.500000 76 20 21
-2.321064 -0.166310 3.549443 83 43 40
-2.321064 -0.129736 1.100000 253 253 253
-2.321064 -0.066310 1.162786 254 254 254
-2.342617 -0.066310 1.300000 154 159 164
-2.321064 -0.066310 1.288611 154 159 164
-2.321064 -0.084054 1.600000 73 77 86
-2.321064 -0.066310 1.605937 73 77 86
-2.370478 -0.066310 2.100000 96 40 59
-2.370367 -0.066310 2.200000 121 46 55
-2.370359 -0.066310 2.300000 112 41 44
-2.369639 -0.066310 2.400000 107 37 41
-2.369558 -0.066310 2.500000 99 33 34
-2.369691 -0.066310 2.600000 97 31 33
-2.369711 -0.066310 2.700000 97 31 33
-2.369539 -0.066310 2.800000 94 30 32
-2.369479 -0.066310 2.900000 93 29 33
-2.369765 -0.066310 3.000000 96 34 34
-2.369811 -0.066310 3.100000 103 36 41
-2.370038 -0.066310 3.200000 112 56 47
-2.366074 -0.066310 3.300000 95 75 65
-2.365308 -0.066310 3.400000 68 52 49
-2.321064 -0.066310 3.547818 83 45 41
-2.321064 0.033690 1.162418 255 255 255
-2.321064 -0.055262 1.300000 154 159 164
-2.321064 -0.033254 1.400000 168 169 167
-2.351378 0.033690 1.400000 78 74 83
-2.321064 -0.003741 1.500000 84 82 89
-2.321064 -0.061638 1.600000 73 77 86
-2.370683 0.033690 1.800000 48 47 57
-2.370098 0.033690 1.900000 109 57 64
-2.370084 0.033690 2.000000 111 42 60
-2.370593 0.033690 2.100000 119 40 63
-2.370440 0.033690 2.200000 126 46 54
-2.370422 0.033690 2.300000 124 42 49
-2.369681 0.033690 2.400000 111 39 43
-2.369625 0.033690 2.500000 101 34 36
-2.369808 0.033690 2.600000 99 33 36
-2.369752 0.033690 2.700000 97 32 34
-2.369814 0.033690 2.800000 108 47 45
-2.370388 0.033690 2.900000 109 52 47
-2.368848 0.033690 3.000000 97 43 43
-2.367888 0.033690 3.100000 90 38 39
-2.369363 0.033690 3.300000 74 35 37
-2.368520 0.033690 3.400000 73 54 47
-2.321064 -0.018492 3.500000 83 45 41
-2.321064 0.033690 3.447456 73 54 47
-2.321064 0.133690 1.164564 252 252 252
-2.367654 0.133690 1.600000 87 85 102
-2.370914 0.133690 1.700000 55 30 49
-2.371047 0.133690 1.800000 106 36 46
-2.369777 0.133690 1.900000 114 41 56
-2.370050 0.133690 2.000000 118 42 59
-2.370650 0.133690 2.100000 123 42 65
-2.370478 0.133690 2.200000 119 42 50
-2.370465 0.133690 2.300000 123 43 51
-2.369834 0.133690 2.400000 113 40 46
-2.369874 0.133690 2.500000 101 34 38
-2.370456 0.133690 2.600000 94 34 38
-2.370917 0.133690 2.700000 96 36 37
-2.321064 0.133690 2.749853 96 36 37
-2.321064 0.082439 2.800000 108 47 45
-2.321064 0.133690 2.852449 77 28 34
-2.368616 0.133690 2.900000 77 28 34
-2.369200 0.133690 3.000000 76 32 29
-2.369056 0.133690 3.100000 84 39 39
-2.368884 0.133690 3.200000 91 46 45
-2.370606 0.133690 3.300000 100 66 57
-2.321064 0.133690 3.349542 100 66 57
-2.321064 0.081146 3.400000 73 54 47
-2.370984 0.133690 3.700000 91 93 98
-2.321064 0.083771 3.700000 91 93 98
-2.321064 0.133690 3.650081 91 93 98
-2.321064 0.133690 3.749919 91 93 98
-2.343055 0.233690 1.200000 250 250 250
-2.321064 0.233690 1.178010 250 250 250
-2.370487 0.233690 1.700000 90 46 66
-2.321064 0.233690 1.749423 90 46 66
-2.321064 0.183672 1.800000 106 36 46
-2.321064 0.233690 1.851725 125 48 66
-2.369340 0.233690 1.900000 125 48 66
-2.370346 0.233690 2.000000 124 46 60
-2.370640 0.233690 2.100000 130 44 58
-2.370523 0.233690 2.200000 125 43 50
-2.370491 0.233690 2.300000 132 48 63
-2.369828 0.233690 2.400000 118 43 53
-2.369946 0.233690 2.500000 102 37 39
-2.370603 0.233690 2.600000 97 36 38
-2.321064 0.233690 2.649538 97 36 38
-2.321064 0.183542 2.700000 96 36 37
-2.321064 0.233690 2.751895 68 49 44
-2.369169 0.233690 2.800000 68 49 44
-2.321064 0.185585 2.800000 68 49 44
-2.369916 0.233690 2.900000 94 51 46
-2.369479 0.233690 3.000000 104 61 52
-2.370294 0.233690 3.100000 114 87 71
-2.321064 0.233690 3.149230 114 87 71
-2.321064 0.181509 3.200000 91 46 45
-2.321064 0.233690 3.258239 76 74 79
-2.362826 0.233690 3.300000 76 74 79
-2.321064 0.184737 3.400000 91 79 79
-2.370017 0.233690 3.400000 91 79 79
-2.370403 0.233690 3.500000 97 100 107
-2.321064 0.184351 3.500000 97 100 107
-2.321064 0.233690 3.549339 97 100 107
-2.321064 0.183609 3.700000 91 93 98
-2.321064 0.255680 1.200000 250 250 250
-2.321064 0.333690 1.262663 253 253 253
-2.321064 0.333690 1.748291 127 50 71
-2.369035 0.333690 1.900000 129 46 64
-2.321064 0.333690 1.852030 129 46 64
-2.370297 0.333690 2.000000 126 46 66
-2.370503 0.333690 2.100000 132 48 61
-2.370435 0.333690 2.200000 134 49 62
-2.370498 0.333690 2.300000 134 47 68
-2.369914 0.333690 2.400000 123 43 57
-2.369976 0.333690 2.500000 104 35 43
-2.370680 0.333690 2.600000 96 36 37
-2.321064 0.283691 2.700000 130 52 78
-2.371063 0.333690 2.700000 130 52 78
-2.321064 0.281795 2.800000 68 49 44
-2.321064 0.333690 2.749998 130 52 78
-2.321064 0.333690 2.851000 86 55 53
-2.370064 0.333690 2.900000 86 55 53
-2.321064 0.333690 2.949000 86 55 53
-2.321064 0.282104 3.000000 104 61 52
-2.321064 0.282920 3.100000 114 87 71
-2.321064 0.333690 3.153120 89 72 66
-2.367944 0.333690 3.200000 89 72 66
-2.321064 0.286810 3.200000 89 72 66
-2.370575 0.333690 3.300000 84 74 73
-2.370988 0.333690 3.400000 106 122 138
-2.321064 0.333690 3.449923 106 122 138
-2.321064 0.283029 3.500000 97 100 107
-2.321064 0.433690 1.273591 253 253 253
-2.321064 0.433690 1.746065 130 53 74
-2.321064 0.381660 1.900000 129 46 64
-2.321064 0.433690 1.950801 128 44 64
-2.370264 0.433690 2.000000 128 44 64
-2.370661 0.433690 2.100000 133 50 66
-2.370314 0.433690 2.200000 124 42 48
-2.370461 0.433690 2.300000 120 44 51
-2.369769 0.433690 2.400000 98 32 37
-2.369903 0.433690 2.500000 96 33 33
-2.370401 0.433690 2.600000 98 33 37
-2.370908 0.433690 2.700000 105 39 53
-2.321064 0.384462 2.800000 91 39 39
-2.370292 0.433690 2.800000 91 39 39
-2.370816 0.433690 2.900000 79 65 68
-2.321064 0.386430 3.000000 80 67 69
-2.368324 0.433690 3.000000 80 67 69
-2.370213 0.433690 3.100000 95 71 66
-2.321064 0.384542 3.100000 95 71 66
-2.370497 0.433690 3.200000 116 121 140
-2.370676 0.433690 3.300000 106 111 131
-2.321064 0.433690 3.349612 106 111 131
-2.321064 0.383613 3.400000 106 122 138
-2.321064 0.531791 1.300000 195 203 209
-2.321064 0.533690 1.301109 195 203 209
-2.321064 0.484739 1.800000 138 52 72
-2.321064 0.533690 1.848951 138 52 72
-2.370225 0.533690 2.000000 132 50 73
-2.321064 0.533690 1.950839 132 50 73
-2.370604 0.533690 2.100000 128 49 61
-2.370427 0.533690 2.200000 114 38 39
-2.370441 0.533690 2.300000 110 35 35
-2.370234 0.533690 2.400000 103 33 33
-2.369794 0.533690 2.500000 96 32 32
-2.369764 0.533690 2.600000 85 56 59
-2.369990 0.533690 2.700000 99 96 107
-2.370380 0.533690 2.800000 97 101 111
-2.370193 0.533690 2.900000 92 97 105
-2.368960 0.533690 3.000000 120 129 149
-2.370410 0.533690 3.100000 111 117 138
-2.321064 0.533690 3.149345 111 117 138
-2.321064 0.483123 3.200000 116 121 140
-2.321064 0.483301 3.300000 106 111 131
-2.321064 0.633690 1.355864 252 253 253
-2.321064 0.633690 1.847073 132 52 72
-2.369946 0.633690 2.000000 135 52 72
-2.321064 0.633690 1.951118 135 52 72
-2.370581 0.633690 2.100000 127 51 68
-2.370028 0.633690 2.200000 116 40 46
-2.370016 0.633690 2.300000 110 36 36
-2.370521 0.633690 2.400000 108 40 39
-2.368225 0.633690 2.500000 105 109 117
-2.369054 0.633690 2.600000 107 113 126
-2.369514 0.633690 2.700000 94 102 114
-2.370277 0.633690 2.800000 83 92 106
-2.368709 0.633690 2.900000 115 129 155
-2.321064 0.633690 2.947644 115 129 155
-2.321064 0.581586 3.000000 120 129 149
-2.321064 0.583035 3.100000 111 117 138
-2.321064 0.733690 1.395469 194 200 207
-2.321064 0.684398 1.900000 125 58 77
-2.321064 0.682572 2.000000 135 52 72
-2.321064 0.733690 1.949291 125 58 77
-2.321064 0.683206 2.100000 127 51 68
-2.321064 0.682652 2.200000 116 40 46
-2.321064 0.682641 2.300000 110 36 36
-2.321064 0.733690 2.350938 121 138 151
-2.370126 0.733690 2.400000 121 138 151
-2.368775 0.733690 2.500000 101 110 122
-2.369464 0.733690 2.600000 94 103 116
-2.370632 0.733690 2.700000 87 92 103
-2.321064 0.733690 2.749568 87 92 103
-2.321064 0.682902 2.800000 83 92 106
-2.321064 0.681334 2.900000 115 129 155
-2.321064 0.760501 1.400000 194 200 207
-2.321064 0.833690 1.422976 154 166 177
-2.321064 0.833690 1.947281 105 108 126
-2.321064 0.782752 2.400000 121 138 151
-2.321064 0.781400 2.500000 101 110 122
-2.321064 0.782089 2.600000 94 103 116
-2.321064 0.783257 2.700000 87 92 103
-2.334992 0.933690 1.400000 137 151 163
-2.321064 0.933690 1.405342 137 151 163
-2.371286 0.933690 2.000000 94 108 125
-2.321064 0.933690 1.942305 104 116 131
-2.370794 0.933690 2.200000 110 129 144
-2.321064 0.883960 2.200000 110 129 144
-2.321064 0.933690 2.150270 110 129 144
-2.321064 0.933690 2.249730 110 129 144
-2.338476 1.033690 1.400000 158 155 172
-2.321064 1.033690 1.382588 158 155 172
-2.321064 0.939818 1.400000 137 151 163
-2.321064 0.986604 2.000000 101 118 140
-2.321064 1.033690 2.047085 101 118 140
-2.321064 0.983419 2.200000 110 129 144
-2.321064 1.051101 1.400000 158 155 172
-2.321064 1.133690 1.467507 150 163 177
-2.321064 1.133690 1.948658 120 140 153
-2.321064 1.080775 2.000000 101 118 140
-2.361433 1.233690 1.500000 145 156 162
-2.321064 1.233690 1.459632 145 156 162
-2.370930 1.233690 1.800000 120 138 153
-2.321064 1.233690 1.849866 120 138 153
-2.321064 1.182348 1.900000 120 140 153
-2.321064 1.274058 1.500000 145 156 162
-2.321064 1.333690 1.551639 156 165 179
-2.321064 1.333690 1.648361 156 165 179
-2.321064 1.280680 1.700000 134 152 168
-2.321064 1.283556 1.800000 120 138 153
-2.321064 1.382051 1.600000 156 165 179
-2.269807 -1.866310 3.400000 92 64 100
-2.221065 -1.915053 3.400000 92 64 100
-2.221065 -1.866310 3.351257 92 64 100
-2.221065 -1.866310 3.448743 92 64 100
-2.263355 -1.766310 3.200000 228 201 194
-2.221065 -1.808601 3.200000 228 201 194
-2.221065 -1.766310 3.157710 228 201 194
-2.221065 -1.809197 3.300000 205 179 187
-2.270979 -1.766310 3.500000 156 87 90
-2.221065 -1.816225 3.500000 156 87 90
-2.221065 -1.766310 3.549915 156 87 90
-2.221065 -1.693319 3.100000 238 226 223
-2.221065 -1.666310 3.072991 238 226 223
-2.221065 -1.666310 3.549152 183 162 155
-2.221065 -1.567499 3.000000 253 253 250
-2.221065 -1.566310 2.998811 253 253 250
-2.221065 -1.615847 3.600000 128 89 133
-2.221065 -1.566310 3.649536 128 89 133
-2.296538 -1.466310 2.800000 207 77 80
-2.221065 -1.551569 3.000000 253 253 250
-2.221065 -1.466310 3.036618 245 230 228
-2.221065 -1.466310 3.649216 125 112 137
-2.266493 -1.366310 2.600000 199 63 66
-2.277848 -1.366310 2.700000 198 64 68
-2.301520 -1.366310 2.800000 202 80 77
-2.221065 -1.366310 3.088857 185 178 177
-2.221065 -1.415692 3.700000 147 128 140
-2.270446 -1.366310 3.700000 147 128 140
-2.221065 -1.366310 3.749382 147 128 140
-2.259202 -1.266310 2.500000 198 58 65
-2.268318 -1.266310 2.600000 199 70 71
-2.221065 -1.347136 3.100000 185 178 177
-2.221065 -1.266310 3.146524 171 168 166
-2.221065 -1.266310 3.749247 159 162 166
-2.239628 -1.166310 2.300000 197 55 64
-2.249983 -1.166310 2.400000 201 61 67
-2.294706 -1.166310 3.100000 146 143 141
-2.221065 -1.166957 3.200000 190 186 189
-2.222950 -1.166310 3.200000 190 186 189
-2.221065 -1.166310 3.200346 190 186 189
-2.221065 -1.215636 3.800000 176 186 190
-2.221065 -1.166310 3.849326 176 186 190
-2.221065 -1.066318 2.100000 188 53 59
-2.221065 -1.066310 2.099992 188 53 59
-2.230099 -1.066310 2.200000 197 64 68
-2.221065 -1.066310 2.100290 188 53 59
-2.316824 -1.066310 3.000000 170 164 165
-2.282579 -1.066310 3.100000 177 154 153
-2.246330 -1.066310 3.200000 205 191 188
-2.221065 -1.066310 3.253918 193 190 188
-2.271847 -1.066310 3.800000 176 190 198
-2.221065 -1.066310 3.744862 179 191 196
-2.221065 -1.116984 3.800000 176 186 190
-2.221065 -0.968378 2.000000 179 59 69
-2.221065 -0.966310 1.997932 179 59 69
-2.221065 -1.066299 2.100000 188 53 59
-2.319742 -0.966310 2.100000 182 60 71
-2.221065 -0.966310 2.002978 179 59 69
-2.221065 -1.041096 3.000000 183 161 155
-2.221065 -0.966310 2.921455 173 159 155
-2.221065 -1.027401 3.100000 200 171 166
-2.221065 -1.046455 3.200000 205 191 188
-2.245870 -0.966310 3.500000 158 164 173
-2.221065 -1.027118 3.600000 172 173 173
-2.221065 -0.966310 3.524805 158 164 173
-2.288206 -0.966310 3.600000 120 123 141
-2.221065 -1.021448 3.700000 179 191 196
-2.221065 -0.872837 1.800000 171 50 67
-2.221065 -0.866310 1.793473 171 50 67
-2.281682 -0.866310 1.900000 177 57 69
-2.221065 -0.866310 1.818210 171 50 67
-2.221065 -0.964017 2.000000 179 59 69
-2.250643 -0.866310 2.800000 195 188 187
-2.221065 -0.888062 2.800000 195 188 187
-2.221065 -0.866310 2.782836 195 188 187
-2.221065 -0.942228 2.900000 173 159 155
-2.270651 -0.866310 3.300000 180 168 164
-2.221065 -0.866310 3.349586 180 168 164
-2.221065 -0.951295 3.400000 156 165 171
-2.221065 -0.941505 3.500000 158 164 173
-2.230212 -0.766310 1.600000 161 50 65
-2.221065 -0.775458 1.600000 161 50 65
-2.221065 -0.766310 1.590853 161 50 65
-2.221065 -0.770336 1.700000 171 53 67
-2.221065 -0.766310 1.705295 171 53 67
-2.221065 -0.857796 1.800000 171 50 67
-2.221065 -0.766310 2.715735 173 157 157
-2.270573 -0.766310 3.300000 84 69 78
-2.221065 -0.766310 3.349509 84 69 78
-2.221065 -0.678321 1.500000 161 51 68
-2.221065 -0.666310 1.487990 161 51 68
-2.221065 -0.752524 1.600000 161 50 65
-2.221065 -0.666310 1.517816 161 51 68
-2.221065 -0.760650 1.700000 171 53 67
-2.304500 -0.666310 2.400000 159 156 153
