ply
format ascii 1.0
element vertex 1899
property float x
property float y
property float z
property uchar red
property uchar green
property uchar blue
end_header
9322 23536 8018 17 17 10
9466 23392 7956 11 11 7
9466 23298 7893 10 11 6
9322 23395 7893 18 16 11
9322 23392 7891 17 15 10
9328 23392 7893 17 15 10
9609 23249 7932 8 11 4
9609 23173 7893 8 11 4
9525 23249 7893 8 11 5
9609 23105 7859 8 10 4
9466 23249 7863 9 10 6
9322 23249 7799 13 13 8
9466 23105 7797 7 10 5
9349 23105 7749 11 10 6
9322 23133 7749 12 11 7
9322 23105 7738 11 11 7
10183 22962 7931 9 10 4
10040 22962 7902 9 10 5
10040 22947 7893 9 10 5
10000 22962 7893 9 10 5
10183 22908 7893 9 10 4
10183 22818 7831 10 10 4
10040 22818 7812 9 10 5
9896 22962 7870 9 10 5
9896 23005 7893 9 10 5
9753 22962 7832 9 10 5
9896 22818 7791 9 10 5
9753 22818 7762 9 11 6
9753 22791 7749 9 11 6
10183 22684 7749 10 10 4
10183 22675 7744 10 10 5
10040 22712 7749 9 10 5
10040 22675 7730 9 11 6
9896 22745 7749 9 10 5
9896 22675 7715 9 10 5
9753 22675 7692 9 11 6
9609 22962 7782 7 10 5
9520 22962 7749 7 10 5
9609 22900 7749 8 10 6
9718 22818 7749 8 10 6
9609 22818 7712 8 10 6
9466 22962 7732 7 10 5
9466 23004 7749 7 10 5
9322 22962 7689 9 11 6
10040 22531 7642 9 11 5
10183 22531 7665 10 11 4
9753 22531 7620 9 11 6
9896 22531 7636 9 11 6
9466 22818 7670 6 11 5
9322 22818 7630 8 11 6
9250 22818 7606 11 12 7
9609 22675 7658 9 11 6
9662 22531 7606 10 11 6
9609 22550 7606 9 11 6
9609 22531 7597 10 11 6
9466 22675 7612 8 11 5
9448 22675 7606 8 11 6
9466 22659 7606 8 11 6
9322 22675 7571 8 12 6
9322 22765 7606 8 11 6
9466 22531 7560 8 11 7
9322 22531 7523 7 11 6
9035 23536 7973 12 12 5
9179 23536 7984 13 12 6
8892 23536 7973 14 14 8
8748 23536 7979 17 16 10
9035 23449 7893 13 11 5
9179 23431 7893 15 12 6
9035 23392 7841 13 11 6
9179 23392 7857 16 13 7
8748 23444 7893 17 14 8
8892 23449 7893 13 12 7
8748 23392 7844 16 13 7
8892 23392 7839 14 12 6
9179 23237 7749 19 16 9
9179 23249 7755 19 15 8
9137 23249 7749 18 15 8
9035 23249 7733 15 13 7
9035 23270 7749 15 12 6
9179 23105 7681 16 15 9
8892 23277 7749 14 13 6
8892 23249 7728 14 13 6
8748 23273 7749 15 13 6
8748 23249 7732 15 13 6
8461 23536 7954 20 17 11
8605 23536 7971 19 18 11
8318 23536 7950 21 17 12
8461 23460 7893 18 17 11
8605 23449 7893 18 16 10
8605 23392 7841 17 15 9
8461 23392 7848 18 16 10
8318 23392 7863 20 16 9
8318 23444 7893 20 17 10
8605 23265 7749 17 15 8
8605 23249 7740 17 14 7
8510 23249 7749 18 15 8
8461 23239 7749 19 16 9
8461 23249 7755 19 16 9
8318 23171 7749 19 17 10
8318 23249 7787 19 17 9
8234 23105 7749 19 15 9
8318 23105 7721 19 17 11
9035 23105 7647 19 15 8
8892 23074 7606 18 14 6
8892 23105 7624 17 13 6
8748 23105 7626 16 13 7
8748 23075 7606 17 13 7
8605 23105 7640 16 14 7
8605 23056 7606 16 14 7
8461 23105 7673 19 16 9
9102 22962 7606 16 15 9
9179 22962 7629 14 14 8
9035 22962 7583 18 17 11
9035 23016 7606 19 17 10
9179 22818 7583 13 13 7
9179 22893 7606 13 13 8
9035 22818 7527 15 16 10
8892 22962 7544 19 15 8
8748 22962 7529 19 15 8
8892 22818 7476 18 16 9
8748 22818 7464 20 17 10
8748 22813 7462 20 17 10
9179 22675 7530 11 12 7
9035 22675 7476 12 15 9
8984 22675 7462 14 15 9
9179 22531 7474 9 12 6
9149 22531 7462 9 12 6
9035 22640 7462 13 15 9
9035 22531 7426 12 15 9
8892 22772 7462 18 16 10
8892 22675 7439 16 16 10
8748 22675 7413 17 16 10
8892 22531 7390 14 16 11
8748 22531 7361 16 14 9
8461 22962 7587 21 17 9
8461 22994 7606 20 17 9
8605 22962 7548 19 15 8
8605 22796 7462 22 16 8
8605 22818 7471 22 16 8
8461 22818 7520 23 16 9
8318 22962 7650 21 17 9
8418 22962 7606 21 18 10
8318 22856 7606 22 18 10
8318 22818 7589 21 17 9
8288 22818 7606 21 17 9
8466 22675 7462 22 16 9
8461 22675 7464 21 16 9
8461 22671 7462 21 17 10
8318 22675 7523 21 17 10
8318 22562 7462 20 18 10
8318 22531 7446 20 18 10
8282 22531 7462 20 17 11
8605 22675 7421 21 16 8
8605 22531 7376 17 16 9
8461 22531 7405 21 17 10
12049 22521 8036 48 42 38
12192 22477 8036 49 44 41
12192 22388 7955 44 40 38
12192 22309 7893 42 39 37
12049 22362 7893 37 38 34
12049 22388 7913 39 39 35
11905 22440 7893 36 32 28
11905 22388 7837 33 30 26
12003 22388 7893 37 36 32
11905 22301 7749 28 26 24
11793 22388 7749 25 23 21
12192 22244 7834 41 40 38
12192 22144 7749 38 38 38
12049 22224 7749 32 31 30
12049 22244 7768 33 32 31
12192 22101 7709 38 38 38
12014 22244 7749 31 30 29
11762 22524 7893 31 25 23
11762 22414 7749 24 23 20
11762 22388 7712 25 23 20
12049 22101 7637 32 32 27
12049 22063 7606 31 31 26
11905 22179 7606 24 23 19
11905 22244 7674 26 24 21
11825 22244 7606 26 25 20
12002 22101 7606 29 29 24
11905 22101 7536 23 23 18
11618 22433 7606 33 29 25
11668 22388 7606 30 27 23
11762 22299 7606 27 26 20
11618 22388 7565 32 29 25
11331 22513 7606 35 31 26
11475 22515 7606 36 30 26
11475 22388 7524 34 30 27
11331 22388 7546 31 28 25
11762 22244 7553 27 26 20
11618 22244 7475 32 29 24
11618 22215 7462 31 29 23
11762 22111 7462 26 25 19
11773 22101 7462 26 25 19
11762 22101 7456 26 25 19
11475 22244 7466 33 29 24
11475 22236 7462 33 29 24
11331 22244 7488 29 26 22
11331 22179 7462 27 25 21
11331 22101 7430 24 23 19
11618 22101 7419 27 26 19
11475 22101 7413 29 27 21
12192 21973 7606 39 40 37
12192 21957 7592 39 40 37
12222 21957 7606 40 41 38
12049 21957 7513 28 27 25
12049 21898 7462 27 27 24
12192 21814 7462 36 35 34
12193 21814 7462 36 35 34
12192 21814 7462 35 35 34
11905 22001 7462 22 22 17
11960 21957 7462 23 23 20
11905 21957 7427 21 21 17
12049 21814 7385 25 25 21
11905 21793 7319 19 19 16
11905 21814 7332 19 19 16
11861 21814 7319 20 20 15
12192 21670 7349 33 33 31
12049 21713 7319 23 24 21
12114 21670 7319 27 28 25
12049 21670 7290 22 23 20
12192 21620 7319 32 33 30
12192 21527 7266 30 32 30
12049 21527 7210 22 24 21
11905 21670 7236 19 20 16
11905 21551 7175 19 19 15
11938 21527 7175 19 20 16
11762 21957 7373 23 22 18
11618 21957 7351 24 23 18
11618 21897 7319 24 22 18
11762 21866 7319 21 21 15
11762 21814 7289 20 20 14
11618 21814 7276 23 21 16
11475 21957 7350 25 24 18
11475 21897 7319 24 23 17
11331 21906 7319 22 22 17
11331 21957 7349 23 22 17
11475 21814 7278 23 22 16
11331 21814 7270 21 20 16
11618 21670 7200 20 20 15
11762 21670 7205 19 19 15
11618 21620 7175 19 20 15
11762 21611 7175 18 18 15
11475 21670 7207 21 21 15
11331 21670 7185 22 20 15
11331 21657 7175 21 20 15
11293 21670 7175 21 19 14
11475 21617 7175 21 21 14
11188 22424 7606 30 27 24
11188 22388 7588 29 26 23
11044 22388 7616 25 22 17
11106 22388 7606 27 24 20
11044 22369 7606 24 22 17
10757 22426 7606 13 11 6
10906 22388 7606 19 17 11
10901 22388 7605 19 17 11
10901 22388 7606 19 17 11
10757 22388 7579 13 11 6
11188 22244 7516 23 20 16
11044 22166 7462 20 19 13
11044 22244 7516 22 20 15
11188 22101 7444 19 18 13
11188 22135 7462 19 19 14
10901 22244 7497 17 16 10
10901 22189 7462 17 16 10
10757 22244 7478 11 11 5
10757 22225 7462 11 10 5
11044 22101 7419 19 18 12
10901 22020 7319 15 13 8
10901 22101 7390 15 14 9
10757 22058 7319 11 11 5
10757 22101 7351 11 10 4
10614 22388 7574 10 9 3
10614 22437 7606 10 9 3
10327 22433 7606 10 9 3
10470 22427 7606 9 8 2
10470 22388 7574 9 8 2
10327 22388 7566 9 9 2
10327 22272 7462 9 9 2
10645 22244 7462 10 9 3
10614 22244 7458 9 9 3
10614 22249 7462 10 9 3
10470 22251 7462 9 8 2
10470 22244 7457 9 9 2
10327 22244 7439 9 9 3
10614 22073 7319 10 10 4
10614 22101 7345 9 9 3
10470 22092 7319 10 9 3
10470 22101 7327 10 9 3
10435 22101 7319 9 9 3
10327 22101 7297 9 10 4
10327 22122 7319 9 10 3
11188 21934 7319 19 18 13
11188 21957 7334 19 18 13
11097 21957 7319 18 17 12
11044 21968 7319 17 17 12
11044 21957 7310 18 17 12
11044 21814 7217 17 16 11
11188 21814 7253 19 18 13
10901 21957 7277 14 13 8
10757 21957 7229 11 11 5
10757 21897 7175 11 11 6
10901 21814 7175 14 13 8
10902 21814 7175 14 13 8
11188 21701 7175 19 18 14
11044 21756 7175 17 16 11
10614 21957 7209 10 10 5
10508 21957 7175 10 10 4
10614 21924 7175 10 10 4
10470 21967 7175 10 10 4
10470 21957 7168 10 10 4
10327 21985 7175 9 10 4
11905 21527 7163 19 19 15
11618 21527 7131 18 20 15
11762 21527 7133 18 17 14
11331 21527 7096 22 22 15
11475 21527 7120 21 20 14
10757 21814 7125 11 11 6
11044 21670 7116 18 16 11
11188 21670 7153 19 18 14
11188 21527 7063 20 20 15
11095 21527 7032 18 18 12
11044 21550 7032 18 17 11
11044 21527 7016 17 17 10
10901 21670 7064 13 12 7
10788 21670 7032 12 12 7
10757 21682 7032 11 12 6
10757 21670 7024 12 12 6
10901 21629 7032 13 13 8
10901 21527 6965 13 12 8
10757 21527 6911 11 11 5
10614 21814 7091 10 10 5
10327 21957 7151 10 11 4
10470 21814 7059 11 11 4
10470 21779 7032 11 10 3
10327 21814 7038 11 11 4
10327 21807 7032 11 11 4
10614 21741 7032 11 10 5
10614 21670 6980 11 10 5
10327 21670 6940 11 11 4
10470 21670 6953 10 10 3
10697 21527 6888 10 10 4
10614 21561 6888 10 10 4
10614 21527 6861 10 10 4
10470 21588 6888 9 10 3
10470 21527 6837 9 10 2
10327 21602 6888 11 11 4
10327 21527 6831 11 11 4
12192 21383 7199 26 28 26
12128 21383 7175 22 24 23
12049 21454 7175 20 21 20
12192 21327 7175 26 27 25
12268 21240 7175 31 31 30
12049 21383 7141 19 20 19
11905 21383 7089 17 18 15
12049 21240 7072 18 18 18
12192 21240 7134 26 25 25
12049 21157 7032 18 19 18
12192 21096 7059 24 26 25
12192 21035 7032 25 26 24
12116 21096 7032 20 22 21
12049 21096 7003 17 19 17
11910 21240 7032 17 17 15
11905 21243 7032 17 17 14
11905 21240 7030 17 17 14
11905 21096 6959 14 16 13
11762 21383 7066 18 18 14
11618 21383 7055 18 18 14
11618 21337 7032 18 19 14
11762 21307 7032 17 17 13
11475 21383 7039 20 19 15
11422 21383 7032 21 20 16
11331 21383 7019 23 21 16
11331 21403 7032 23 21 15
11475 21371 7032 20 19 15
11618 21240 6977 18 19 14
11762 21240 6997 16 16 13
11762 21096 6917 14 16 13
11475 21240 6957 19 19 14
11331 21240 6933 21 20 15
11762 21036 6888 15 17 13
11618 21101 6888 16 18 12
11618 21096 6886 16 18 12
11631 21096 6888 15 17 12
11331 21171 6888 21 20 14
11475 21135 6888 18 18 13
11331 21096 6842 20 20 13
11475 21096 6862 18 18 12
12192 20953 6991 26 26 24
12049 20953 6942 17 19 17
12192 20809 6912 23 25 23
12192 20750 6888 24 24 23
12049 20832 6888 18 19 17
12084 20809 6888 20 20 19
12049 20809 6878 18 19 17
11905 20953 6897 15 17 14
11905 20932 6888 14 16 14
11875 20953 6888 15 17 14
11905 20809 6826 14 16 14
12192 20666 6851 24 24 24
12049 20666 6801 20 21 18
12192 20522 6790 25 26 22
12048 20522 6745 21 20 18
12049 20522 6745 21 21 19
12049 20521 6745 21 20 19
11905 20641 6745 14 17 13
11905 20666 6754 14 17 13
11872 20666 6745 14 16 13
11905 20522 6701 15 17 15
11762 20953 6849 15 16 13
11618 20953 6810 15 16 12
11657 20809 6745 14 15 11
11762 20809 6775 14 15 13
11762 20743 6745 14 15 13
11618 20809 6734 14 15 11
11618 20829 6745 14 15 11
11475 20867 6745 14 15 10
11475 20953 6781 15 17 11
11269 20953 6745 17 17 12
11331 20953 6760 17 17 12
11331 20919 6745 16 17 12
11331 20809 6697 16 17 12
11475 20809 6720 14 14 10
11762 20666 6711 14 14 12
11618 20666 6687 15 16 13
11762 20522 6662 15 16 13
11475 20666 6664 15 15 11
11618 20522 6638 15 15 12
11331 20666 6637 15 16 11
11475 20491 6601 16 17 12
11475 20522 6610 15 16 12
11402 20522 6601 16 17 12
11331 20522 6594 16 16 11
11331 20546 6601 16 17 12
11188 21383 6973 21 20 15
11188 21478 7032 20 20 15
11044 21383 6920 16 15 10
11044 21327 6888 16 15 10
10983 21383 6888 14 14 9
10901 21432 6888 13 12 7
10901 21383 6851 12 11 6
10757 21383 6789 10 10 4
10757 21500 6888 11 10 4
10757 21330 6745 10 10 3
11202 21240 6888 21 18 14
11188 21247 6888 20 18 14
11188 21240 6884 20 18 13
11044 21240 6835 16 14 9
11188 21096 6805 18 17 11
11044 21091 6745 13 13 6
11044 21096 6748 13 13 6
11039 21096 6745 12 12 5
10901 21240 6753 12 11 5
10901 21225 6745 12 11 5
10884 21240 6745 11 11 4
10757 21240 6689 11 11 3
10901 21096 6670 11 10 4
10652 21383 6745 10 10 3
10614 21398 6745 10 10 3
10614 21383 6734 10 10 3
10470 21423 6745 9 10 2
10470 21383 6719 10 10 3
10327 21419 6745 11 10 3
10327 21383 6722 12 10 3
10757 21100 6601 10 9 3
10762 21096 6601 10 9 3
10757 21096 6599 10 9 3
10614 21240 6650 10 9 3
10614 21163 6601 10 10 4
10614 21096 6565 10 10 5
10470 21175 6601 11 11 4
10470 21240 6644 10 10 4
10327 21240 6638 11 10 2
10327 21188 6601 10 8 2
10327 21096 6554 9 7 1
10470 21096 6552 10 10 4
11188 20953 6728 17 17 10
11188 20989 6745 17 17 11
11044 20953 6668 13 13 6
11188 20809 6659 17 16 10
11044 20738 6601 11 11 5
11044 20809 6622 11 11 5
10901 20962 6601 10 10 4
10909 20953 6601 10 10 4
10901 20953 6597 10 10 4
10757 20953 6540 9 10 4
10901 20809 6565 10 10 4
10989 20809 6601 10 10 4
10757 20809 6487 9 10 4
11188 20666 6619 16 16 10
11188 20621 6601 16 16 10
11126 20666 6601 14 14 8
11044 20666 6580 12 11 6
11188 20522 6567 15 15 9
11044 20522 6534 12 12 6
10901 20666 6514 10 9 4
10757 20698 6458 10 10 4
10757 20666 6450 9 10 4
10775 20666 6458 10 10 4
10901 20522 6483 10 9 5
10848 20522 6458 10 9 5
10757 20522 6412 10 10 4
10614 20953 6491 10 10 4
10614 20878 6458 10 10 4
10692 20809 6458 10 10 4
10614 20809 6431 10 10 4
10470 20953 6471 10 9 2
10470 20926 6458 10 9 2
10327 20917 6458 8 7 1
10327 20953 6478 9 7 1
10470 20809 6406 10 9 2
10327 20809 6403 8 7 1
10614 20666 6390 10 9 4
10572 20522 6314 8 9 4
10614 20522 6331 9 9 4
10614 20480 6314 9 10 4
10470 20666 6346 8 8 2
10327 20666 6330 7 7 1
10327 20635 6314 8 8 2
10470 20598 6314 8 9 3
10470 20522 6283 8 9 3
10327 20522 6265 8 8 2
10040 22474 7606 10 11 5
10183 22450 7606 10 11 4
10183 22388 7553 9 10 3
10183 22291 7462 9 10 4
10040 22300 7462 9 11 5
10040 22388 7543 10 11 5
9753 22507 7606 9 11 6
9896 22486 7606 10 11 6
9896 22289 7462 10 11 6
9896 22388 7538 10 11 6
9753 22388 7524 9 11 6
9753 22302 7462 9 11 6
10183 22244 7422 9 10 4
10040 22244 7413 9 11 5
10040 22141 7319 11 11 5
10183 22135 7319 9 10 4
10183 22101 7287 9 10 4
10040 22101 7284 10 11 6
9753 22244 7420 9 11 6
9896 22244 7422 11 11 5
9896 22126 7319 11 11 5
9896 22101 7299 11 12 6
9766 22101 7319 9 10 5
9753 22101 7321 9 10 5
9753 22097 7319 9 10 4
9609 22388 7505 9 11 6
9609 22315 7462 9 10 5
9466 22330 7462 8 10 5
9466 22388 7492 8 11 6
9322 22388 7467 7 11 6
9322 22376 7462 7 11 6
9308 22388 7462 7 11 6
9609 22244 7420 9 10 4
9609 22101 7342 9 10 4
9609 22057 7319 9 10 4
9466 22244 7415 9 10 4
9322 22244 7405 7 11 5
9466 22017 7319 9 11 5
9466 22101 7358 9 11 5
9322 22101 7368 7 11 6
10040 21980 7175 11 11 6
10183 21984 7175 9 10 4
9913 21957 7175 12 12 6
9896 21957 7178 11 12 6
9896 21953 7175 11 12 6
9753 21957 7225 9 10 4
9753 21884 7175 10 10 4
9609 21957 7255 9 10 3
9517 21814 7175 9 10 4
9609 21831 7175 9 10 4
9322 22015 7319 8 11 5
9466 21957 7289 9 10 5
9322 21957 7287 8 11 5
9466 21814 7181 9 10 4
9466 21805 7175 9 10 4
9322 21778 7175 10 11 5
9322 21814 7200 9 11 5
9179 22388 7426 8 11 6
9179 22499 7462 8 11 6
9035 22388 7381 11 13 8
8892 22388 7338 14 16 11
8892 22337 7319 14 15 10
8754 22388 7319 15 14 9
8748 22390 7319 15 14 9
8748 22388 7318 15 14 9
9179 22244 7382 7 10 5
8990 22244 7319 10 12 7
9035 22244 7338 10 12 7
9035 22206 7319 9 11 6
9179 22101 7332 7 10 4
9150 22101 7319 7 10 4
9179 22073 7319 6 10 4
9035 22101 7272 8 10 6
8892 22244 7285 12 14 8
8748 22244 7246 14 15 8
8892 22101 7215 11 12 6
8892 22026 7175 10 11 6
8761 22101 7175 11 12 7
8748 22108 7175 12 12 8
8748 22101 7172 11 12 7
8605 22412 7319 16 15 8
8605 22388 7308 16 15 8
8513 22388 7319 19 16 9
8461 22375 7319 21 17 11
8461 22388 7326 21 18 11
8318 22309 7319 20 17 11
8318 22388 7366 20 17 11
8605 22244 7239 18 15 8
8461 22244 7253 19 15 9
8605 22121 7175 17 15 8
8474 22101 7175 17 14 8
8461 22101 7176 18 14 8
8461 22099 7175 18 14 8
8218 22244 7319 19 16 11
8318 22244 7283 20 16 10
8318 22042 7175 20 15 8
8318 22101 7206 20 16 9
9179 21957 7264 6 10 4
8983 21957 7175 8 9 5
9035 21957 7204 7 9 5
9035 21900 7175 7 9 4
9179 21814 7186 6 9 4
9179 21798 7175 6 9 4
9151 21814 7175 6 9 4
10040 21957 7156 11 11 6
10183 21957 7151 9 10 4
10040 21814 7054 12 12 5
10183 21814 7035 11 11 5
10183 21808 7032 11 11 4
10040 21781 7032 12 12 4
9896 21814 7080 12 11 5
9753 21814 7130 11 10 4
10183 21670 6946 12 11 4
10040 21670 6957 12 12 4
9896 21744 7032 13 11 4
9896 21670 6986 12 11 4
9753 21670 7018 11 10 3
9753 21691 7032 12 10 4
9753 21527 6927 9 9 3
10183 21527 6848 11 11 4
10183 21586 6888 12 11 4
10040 21569 6888 11 10 3
10040 21527 6859 10 10 2
9896 21531 6888 9 9 3
9896 21527 6886 9 9 2
9886 21527 6888 9 9 3
9609 21814 7165 9 10 4
9609 21670 7066 9 10 3
9711 21670 7032 11 10 3
9609 21527 6968 9 9 3
9609 21617 7032 9 10 3
9322 21670 7107 9 10 4
9466 21670 7095 8 10 4
9466 21578 7032 8 9 4
9466 21527 6994 7 9 4
9322 21554 7032 8 10 4
9322 21527 7012 8 9 4
8605 22101 7165 16 15 8
9035 21814 7139 7 8 3
8748 21957 7104 11 12 7
8892 21957 7143 9 10 6
8892 21814 7088 7 10 5
8748 21814 7048 10 12 7
8748 21777 7032 10 11 7
9035 21670 7064 6 9 3
9179 21670 7096 7 9 4
9179 21563 7032 7 9 4
9179 21527 7007 7 9 3
9035 21618 7032 6 8 3
9035 21527 6979 7 8 3
8925 21670 7032 6 9 4
8892 21690 7032 7 9 5
8892 21670 7023 6 8 4
8748 21670 6983 10 10 6
8892 21527 6942 7 8 3
8748 21527 6919 9 10 4
8461 21957 7112 18 15 7
8605 21957 7100 13 14 8
8605 21810 7032 9 11 6
8605 21814 7033 10 12 6
8461 21814 7036 15 14 6
8461 21805 7032 14 13 5
8318 21957 7136 19 15 7
8318 21814 7060 18 14 6
8461 21670 6975 10 11 4
8605 21670 6970 8 10 5
8605 21527 6918 8 9 4
8461 21527 6924 9 10 4
8318 21757 7032 18 14 7
8318 21670 6990 16 13 7
8318 21527 6932 14 12 5
10183 21383 6741 9 9 2
10183 21388 6745 10 10 2
10152 21383 6745 9 9 1
10040 21383 6761 9 8 1
10040 21361 6745 8 7 0
9896 21383 6802 9 8 2
9753 21466 6888 9 9 2
9753 21383 6841 9 9 2
9896 21291 6745 8 8 2
10040 21240 6677 7 6 0
9896 21240 6717 8 8 2
9753 21243 6745 8 8 2
9745 21240 6745 8 8 2
9753 21240 6742 8 8 2
9753 21096 6664 8 9 3
9322 21383 6929 6 9 3
9609 21383 6869 8 9 4
9609 21416 6888 9 9 3
9517 21383 6888 7 9 4
9466 21383 6901 7 9 3
9322 21309 6888 6 7 2
9466 21359 6888 7 8 3
9609 21164 6745 8 9 3
9609 21240 6789 8 9 3
9609 21096 6705 8 9 3
9466 21240 6828 7 8 2
9322 21240 6854 6 7 2
9466 21096 6744 6 7 1
9466 21097 6745 6 7 2
9463 21096 6745 6 7 1
9322 21096 6781 6 7 1
9322 21034 6745 6 7 1
10183 21157 6601 8 7 1
10183 21240 6642 8 7 1
10183 21096 6576 7 7 0
10040 21096 6603 6 6 1
10047 21096 6601 7 6 1
10040 21093 6601 7 6 0
9896 21096 6630 8 7 2
9896 21040 6601 7 7 2
9322 20953 6692 6 7 2
9466 20953 6659 6 7 1
10183 20877 6458 6 7 0
10183 20953 6500 7 7 0
10040 20953 6526 6 6 0
10183 20809 6416 6 6 0
10040 20809 6442 6 6 0
10040 20835 6458 6 6 0
9896 20953 6557 7 6 1
9753 20953 6585 8 8 2
9753 20984 6601 8 9 3
9896 20809 6479 7 7 1
9979 20809 6458 6 6 1
9896 20777 6458 8 7 1
9753 20809 6513 8 9 3
9753 20732 6458 8 9 3
9753 20666 6404 8 9 2
10183 20666 6335 7 7 1
10183 20629 6314 8 7 1
10040 20615 6314 7 7 1
10040 20666 6344 7 7 1
10183 20522 6259 7 7 1
10040 20522 6266 7 7 1
9896 20666 6372 8 7 1
9896 20576 6314 8 7 1
9896 20522 6283 8 7 1
9753 20533 6314 7 8 2
9753 20522 6307 6 7 1
9671 20953 6601 8 9 3
9609 20953 6616 8 8 3
9609 20928 6601 8 8 2
9609 20809 6536 8 8 2
9466 20870 6601 6 7 1
9466 20809 6564 7 7 2
9322 20822 6601 5 6 0
9322 20809 6594 5 6 0
9281 20809 6601 5 6 0
9609 20691 6458 8 8 2
9609 20666 6439 8 8 2
9509 20666 6458 7 8 1
9466 20655 6458 6 7 0
9466 20666 6466 6 7 1
9322 20666 6494 5 6 0
9322 20623 6458 4 5 0
9714 20522 6314 7 8 2
9609 20488 6314 8 9 3
9609 20522 6335 8 9 3
9322 20522 6375 4 5 0
9466 20522 6356 6 7 0
9035 21383 6920 6 7 2
9179 21383 6932 6 8 2
9179 21295 6888 6 7 2
9035 21309 6888 5 6 2
8892 21383 6893 7 8 3
8847 21383 6888 7 8 3
8748 21383 6879 8 8 3
8748 21420 6888 8 8 3
8892 21367 6888 6 7 3
9035 21240 6860 5 6 2
9179 21240 6865 6 6 2
9179 21096 6802 5 6 1
9035 21096 6809 5 6 1
9179 20993 6745 6 6 1
8748 21240 6833 7 8 3
8892 21240 6851 5 6 2
8892 21096 6800 6 6 2
8892 20992 6745 6 7 1
8748 21096 6779 7 8 2
8748 21026 6745 7 8 2
8605 21383 6867 8 9 3
8605 21448 6888 8 9 4
8461 21383 6865 8 9 4
8461 21442 6888 8 9 4
8318 21425 6888 12 11 5
8318 21383 6871 11 10 5
8461 21240 6813 9 9 3
8605 21240 6821 7 8 3
8605 21096 6758 8 8 3
8605 21067 6745 8 8 3
8461 21081 6745 9 9 4
8461 21096 6752 9 9 4
8318 21240 6816 10 11 5
8318 21071 6745 10 11 4
8318 21096 6758 10 11 4
9179 20953 6719 6 6 1
9035 20953 6734 6 7 1
9035 20971 6745 6 6 1
8748 20953 6706 7 8 2
8892 20953 6722 6 7 1
8461 20953 6680 9 10 4
8605 20953 6692 8 9 3
8318 20953 6681 10 10 4
9179 20780 6601 5 6 1
9179 20809 6624 5 6 1
9035 20809 6646 7 8 2
9035 20756 6601 7 9 2
8892 20809 6634 7 8 3
8892 20766 6601 7 8 3
8748 20809 6615 7 7 3
8748 20790 6601 7 8 3
9179 20666 6517 5 6 0
9035 20666 6525 8 9 3
9179 20602 6458 5 6 0
9035 20596 6458 8 9 3
8892 20666 6520 8 9 3
8748 20608 6458 8 10 4
8748 20666 6508 8 9 3
8892 20596 6458 8 10 4
9035 20522 6389 7 8 2
9179 20522 6382 5 6 0
8748 20522 6376 9 10 5
8892 20522 6389 9 11 4
8648 20809 6601 8 8 3
8605 20809 6596 9 9 3
8605 20817 6601 8 9 3
8461 20831 6601 9 10 4
8461 20809 6587 9 10 3
8318 20809 6577 10 11 4
8318 20842 6601 10 10 4
8605 20625 6458 9 10 3
8605 20666 6490 9 10 3
8461 20666 6481 10 11 4
8461 20635 6458 10 11 4
8318 20637 6458 11 12 5
8318 20666 6479 11 11 4
8461 20522 6361 10 10 3
8605 20522 6368 9 10 3
8318 20522 6360 12 12 6
16354 20383 7606 34 38 39
16357 20378 7606 34 37 38
16354 20378 7604 34 38 39
16176 20378 7462 55 57 57
16211 20378 7485 52 54 54
16274 20235 7462 36 38 38
16354 20235 7529 34 36 36
16211 20332 7462 49 51 50
16211 20235 7414 42 44 44
15924 20378 7337 63 67 67
16067 20378 7394 58 62 61
16067 20238 7319 50 56 55
16067 20235 7317 50 56 55
16070 20235 7319 50 55 54
15924 20346 7319 62 66 66
15924 20235 7253 57 60 61
16354 20094 7462 31 33 33
16354 20091 7461 31 32 33
16356 20091 7462 31 33 33
16211 20091 7343 39 40 39
16211 20041 7319 38 38 38
16177 20091 7319 43 45 44
16067 20091 7244 54 58 57
15928 20091 7175 58 61 63
15924 20091 7173 58 61 63
15924 20095 7175 58 61 63
15842 20378 7319 57 62 64
15780 20401 7319 52 58 60
15780 20378 7306 52 58 60
15637 20423 7319 48 49 52
15637 20378 7292 47 48 51
15637 20235 7209 45 48 50
15780 20235 7217 51 55 56
15493 20378 7287 48 48 48
15493 20433 7319 50 49 49
15493 20235 7203 45 47 48
15637 20176 7175 45 47 49
15780 20163 7175 51 55 56
15493 20188 7175 44 46 48
16264 19948 7319 31 32 32
16354 19948 7397 30 33 32
16211 19948 7272 37 37 38
16354 19804 7323 26 27 28
16354 19794 7319 25 26 27
16349 19804 7319 26 27 28
16178 19804 7175 36 38 37
16211 19804 7200 31 33 33
16211 19749 7175 29 30 30
16067 19948 7174 49 56 54
16067 19951 7175 49 56 54
16069 19948 7175 48 55 53
16354 19661 7260 22 24 25
16256 19661 7175 24 24 25
16354 19517 7192 20 20 22
16331 19517 7175 20 19 21
16354 19486 7175 24 23 24
15350 20441 7319 52 53 52
15206 20464 7319 50 52 53
15206 20378 7270 47 48 48
15350 20378 7282 49 51 50
15350 20235 7198 45 48 47
15206 20235 7189 45 48 47
14919 20378 7216 43 44 44
15063 20378 7242 44 44 45
15074 20235 7175 43 45 46
15063 20235 7174 42 45 45
15063 20237 7175 43 44 45
14919 20275 7175 43 44 44
15206 20208 7175 44 47 46
15350 20195 7175 45 47 46
14776 20378 7182 45 47 47
14776 20363 7175 45 46 46
14746 20378 7175 46 48 47
14632 20439 7175 50 53 51
15637 20091 7127 44 46 48
15780 20091 7138 50 53 54
15493 20091 7122 43 46 46
15924 19948 7104 54 59 58
16067 19804 7106 50 55 53
15924 19786 7032 53 58 58
15924 19804 7039 53 58 58
15896 19804 7032 53 58 58
16211 19661 7140 27 27 28
16145 19517 7032 40 42 40
16211 19517 7079 27 27 28
16067 19661 7043 50 54 50
16044 19661 7032 51 55 51
16067 19633 7032 50 54 51
15924 19661 6981 52 56 55
15924 19517 6921 52 56 55
16067 19517 6986 50 54 51
15637 19948 7052 41 45 45
15780 19948 7064 49 51 51
15637 19899 7032 41 45 44
15780 19875 7032 50 54 53
15780 19804 7005 50 54 53
15637 19804 6996 42 44 43
15493 19908 7032 40 43 43
15493 19948 7050 41 44 44
15493 19804 6990 38 41 41
15637 19661 6937 42 44 43
15780 19661 6950 46 47 46
15493 19661 6936 38 39 40
15780 19515 6888 50 51 52
15780 19517 6889 50 51 52
15755 19517 6888 49 50 50
15637 19517 6885 42 41 40
15637 19528 6888 42 41 40
15493 19517 6880 36 40 40
15493 19541 6888 37 39 40
14919 20235 7158 43 45 43
15206 20091 7115 42 45 45
15350 20091 7122 43 45 45
14919 20091 7084 42 44 42
15063 20091 7105 42 45 44
14632 20378 7153 49 52 50
14776 20235 7122 44 46 45
14632 20235 7091 46 48 46
14345 20378 7087 49 52 49
14489 20378 7113 50 52 50
14489 20235 7053 48 50 48
14412 20235 7032 49 51 48
14345 20235 7016 50 51 48
14345 20270 7032 49 52 48
14632 20103 7032 46 48 45
14776 20091 7059 44 46 44
14776 20024 7032 44 45 43
14655 20091 7032 45 48 44
14632 20091 7028 46 48 44
14489 20187 7032 48 49 47
14345 20091 6958 47 49 46
14489 20091 6995 47 48 45
15206 19948 7051 40 41 43
15350 19948 7051 41 44 43
15206 19906 7032 39 40 42
15350 19896 7032 40 42 42
15350 19804 6999 38 40 41
15206 19804 6989 36 39 39
15063 19937 7032 38 41 41
15063 19948 7036 39 42 42
15012 19948 7032 39 41 41
14919 19948 7025 39 40 39
14919 19965 7032 40 41 40
14919 19804 6979 37 38 38
15063 19804 6987 35 37 37
15350 19661 6936 35 38 39
15206 19661 6940 35 37 38
15063 19661 6933 33 37 36
14919 19661 6928 35 36 35
15350 19537 6888 35 38 39
15350 19517 6882 34 39 40
15206 19535 6888 35 37 38
15206 19517 6882 34 38 38
15063 19538 6888 34 37 37
15063 19517 6881 34 37 37
14919 19568 6888 35 36 36
14919 19517 6868 35 37 36
14632 19948 6975 44 46 44
14776 19948 7006 43 43 41
14776 19804 6962 41 42 40
14632 19804 6925 40 44 40
14489 19948 6939 44 46 43
14345 19948 6899 43 45 43
14345 19918 6888 42 44 42
14493 19804 6888 40 43 40
14489 19807 6888 41 43 40
14489 19804 6887 41 43 40
14345 19804 6850 42 44 40
14776 19615 6888 39 41 39
14776 19661 6903 39 42 39
14694 19661 6888 40 43 40
14632 19693 6888 40 44 41
14632 19661 6878 40 43 41
14776 19517 6858 38 39 38
14632 19517 6830 40 42 39
14489 19661 6843 39 43 41
14345 19661 6798 42 44 41
14489 19517 6792 41 44 41
14345 19518 6745 42 44 42
14346 19517 6745 42 45 42
14345 19517 6744 43 45 43
16354 19374 7114 35 34 34
16211 19420 7032 27 27 27
16211 19374 7012 27 27 28
16240 19374 7032 27 27 28
16354 19239 7032 44 44 44
16354 19230 7026 45 45 45
16362 19230 7032 45 45 45
16211 19230 6929 38 39 38
16067 19374 6924 46 49 47
16137 19230 6888 46 48 47
15924 19431 6888 50 56 53
15924 19374 6869 48 54 51
15979 19374 6888 49 54 51
16067 19230 6854 50 54 52
16067 19301 6888 49 53 51
15924 19230 6805 49 53 51
16354 19087 6944 47 52 50
16264 19087 6888 48 50 49
16211 19087 6858 48 49 48
16211 19151 6888 45 46 45
16354 18995 6888 48 52 50
16067 19087 6789 48 53 51
15952 19087 6745 50 50 49
15924 19108 6745 51 49 49
15924 19087 6735 50 49 49
16067 18994 6745 49 53 51
15637 19374 6829 42 41 41
15780 19374 6837 46 47 46
15637 19230 6766 43 42 43
15780 19230 6777 49 46 47
15493 19230 6772 37 41 42
15493 19374 6827 39 42 42
15780 19157 6745 49 45 46
15780 19087 6717 48 44 45
15637 19087 6709 44 43 41
15637 19181 6745 44 43 42
15493 19166 6745 38 40 41
15493 19087 6712 39 39 40
16211 18943 6788 41 42 42
16354 18943 6862 47 50 48
16211 18834 6745 40 39 38
16354 18800 6799 38 38 38
16238 18800 6745 38 37 37
16211 18800 6732 39 38 37
16119 18943 6745 46 49 47
16067 18943 6724 49 52 49
15924 18943 6680 49 49 48
16067 18800 6672 46 46 44
16356 18656 6745 27 27 25
16354 18656 6744 26 26 24
16354 18658 6745 27 27 25
16211 18656 6681 28 27 27
16354 18513 6702 20 21 20
15493 18943 6656 38 40 39
15924 18800 6623 51 50 49
15924 18732 6601 51 51 49
16211 18513 6637 20 17 18
16008 18656 6601 47 47 46
16067 18656 6618 45 44 44
16067 18594 6601 41 40 39
15924 18656 6580 49 51 48
16120 18513 6601 30 28 27
16067 18513 6581 36 35 33
15924 18513 6535 50 50 48
15780 18943 6653 47 45 44
15637 18819 6601 43 42 42
15637 18943 6651 42 42 41
15800 18800 6601 48 45 44
15780 18809 6601 47 44 44
15780 18800 6598 47 44 44
15637 18800 6594 43 42 42
15493 18805 6601 38 39 39
15493 18800 6599 38 39 39
15780 18656 6548 49 46 45
15637 18656 6539 43 42 41
15780 18513 6501 46 48 45
15637 18513 6491 42 42 40
15493 18513 6494 38 41 41
15493 18656 6541 38 39 38
15206 19374 6834 34 38 39
15350 19374 6832 36 40 39
15350 19230 6780 35 39 40
15206 19230 6783 33 38 39
14919 19374 6819 34 37 36
15063 19374 6830 35 37 37
15063 19230 6774 34 37 37
14919 19230 6763 36 37 37
15350 19087 6715 34 39 39
15350 19156 6745 34 39 39
15206 19087 6714 33 37 37
15206 19154 6745 33 37 37
15063 19087 6717 33 36 36
15063 19159 6745 34 36 36
14919 19186 6745 36 37 36
14919 19087 6708 35 37 35
14776 19374 6802 36 39 37
14632 19374 6774 39 42 39
14801 19230 6745 36 39 37
14776 19239 6745 36 40 37
14776 19230 6741 36 39 36
14632 19301 6745 38 41 38
14632 19230 6718 38 40 38
14489 19376 6745 41 45 41
14489 19374 6744 40 44 40
14492 19374 6745 40 44 40
14345 19374 6697 42 44 42
14489 19230 6688 38 41 39
14632 19087 6664 37 40 38
14776 19087 6694 38 39 36
14345 19230 6652 40 43 41
14489 19087 6632 37 40 39
14345 19110 6601 38 42 40
14381 19087 6601 37 41 40
14345 19087 6591 38 42 40
14489 19021 6601 37 41 39
15206 18943 6660 34 37 37
15350 18943 6659 35 38 37
15063 18943 6659 33 36 37
15350 18801 6601 35 38 37
15350 18800 6601 35 38 37
15321 18800 6601 35 37 36
15206 18795 6601 34 37 35
15206 18800 6603 34 37 36
14919 18943 6653 34 37 35
15063 18800 6608 33 37 35
15063 18782 6601 34 37 35
14973 18800 6601 35 37 36
14919 18800 6597 35 37 36
14919 18811 6601 35 38 36
15206 18656 6549 34 36 34
15350 18656 6548 35 37 37
15350 18513 6489 35 37 36
15206 18432 6458 33 35 33
15206 18513 6488 33 35 33
15063 18656 6550 33 35 34
14919 18656 6542 34 36 35
15063 18441 6458 31 34 34
15063 18513 6483 32 34 34
14919 18513 6485 33 34 33
14919 18444 6458 33 34 33
14776 18873 6601 36 38 36
14776 18943 6630 36 38 36
14632 18931 6601 36 40 37
14632 18943 6606 36 40 37
14615 18943 6601 36 40 38
14632 18800 6550 36 38 36
14776 18800 6575 36 37 35
14345 18943 6527 38 43 40
14489 18943 6568 38 41 38
14489 18800 6515 36 40 37
14345 18800 6465 38 42 40
14345 18781 6458 38 42 40
14776 18656 6525 35 36 34
14632 18566 6458 36 38 35
14632 18656 6493 36 38 35
14737 18513 6458 35 37 35
14776 18513 6466 35 37 35
14776 18490 6458 35 36 35
14632 18513 6440 36 37 34
14504 18656 6458 36 40 37
14489 18656 6454 37 40 37
14489 18666 6458 37 40 37
14345 18656 6408 39 41 39
14489 18513 6404 36 39 37
14345 18513 6351 40 41 38
14125 20378 7032 49 52 47
14202 20378 7048 49 52 47
14202 20342 7032 49 51 47
14202 20235 6988 49 50 47
14058 20378 7019 50 51 48
14058 20404 7032 50 52 48
13915 20378 6996 50 52 51
13915 20458 7032 50 53 52
13915 20235 6927 50 52 51
14058 20235 6956 50 51 50
14202 20091 6926 48 49 46
14202 20011 6888 46 47 45
13915 20152 6888 51 53 51
14058 20092 6888 51 52 50
14059 20091 6888 51 52 49
14058 20091 6888 51 52 49
13915 20091 6860 51 53 50
13628 20378 6955 51 54 53
13771 20378 6970 50 53 52
13484 20378 6924 50 52 51
13771 20235 6904 50 53 51
13708 20235 6888 49 52 50
13628 20264 6888 49 51 50
13628 20235 6869 49 51 50
13341 20378 6900 49 52 51
13484 20311 6888 49 52 51
13484 20235 6848 49 52 51
13341 20235 6837 49 53 52
13341 20351 6888 49 52 51
13771 20205 6888 49 52 51
13771 20091 6832 50 52 51
13628 20091 6808 51 55 53
13628 19979 6745 51 56 53
13484 20091 6787 50 55 54
13484 20013 6745 51 54 53
13341 20048 6745 48 52 51
13341 20091 6771 48 52 51
14309 19948 6888 43 45 43
14202 19948 6860 45 46 44
14202 19804 6804 44 46 42
14058 19948 6827 48 49 47
13915 19948 6795 51 52 50
13973 19804 6745 46 49 46
14058 19804 6766 45 47 45
14058 19755 6745 45 46 43
13915 19835 6745 48 51 48
13915 19804 6731 48 51 48
14202 19661 6751 43 45 41
14181 19661 6745 43 46 42
14202 19643 6745 43 46 42
14202 19517 6703 44 47 44
13915 19661 6677 47 50 47
14058 19661 6711 45 46 42
14058 19517 6664 46 49 46
13771 19948 6770 51 55 51
13771 19891 6745 51 54 52
13691 19948 6745 51 55 52
13628 19948 6725 51 55 53
13771 19804 6702 51 53 52
13628 19804 6670 52 55 53
13341 19948 6674 48 52 51
13484 19948 6703 51 54 53
13915 19517 6622 48 51 48
13915 19469 6601 49 52 49
13842 19517 6601 50 53 50
13484 19719 6601 51 54 52
13484 19804 6642 52 55 53
13341 19804 6615 49 52 51
13341 19773 6601 48 51 50
13771 19661 6644 51 54 51
13585 19661 6601 52 54 52
13628 19661 6614 52 55 52
13628 19639 6601 52 55 52
13771 19562 6601 52 55 51
13771 19517 6579 51 55 51
13628 19517 6533 52 54 52
13484 19661 6566 50 53 52
13341 19661 6541 47 50 48
13484 19517 6499 52 54 51
13341 19517 6475 47 50 46
13341 19476 6458 47 49 45
13197 20378 6895 49 51 51
13197 20367 6888 49 51 51
13159 20378 6888 49 51 51
13197 20235 6813 48 52 51
13054 20378 6869 50 52 52
13054 20412 6888 51 53 52
12910 20427 6888 50 52 51
12910 20378 6863 49 51 50
12910 20235 6783 44 48 47
13054 20235 6798 48 51 50
13200 20091 6745 47 51 49
13197 20091 6744 47 51 49
13197 20093 6745 47 51 49
12910 20154 6745 42 46 45
13054 20125 6745 45 48 48
12910 20091 6710 41 46 44
13054 20091 6725 45 48 48
12623 20378 6810 40 43 42
12767 20378 6830 47 49 48
12767 20235 6768 43 46 44
12623 20235 6749 35 39 38
12623 20226 6745 35 39 38
12590 20235 6745 34 37 37
12336 20378 6766 29 32 30
12479 20378 6796 35 38 36
12479 20270 6745 31 34 34
12479 20235 6725 31 35 34
12336 20235 6696 29 30 29
12336 20330 6745 28 30 29
12767 20192 6745 42 45 44
12623 20091 6666 39 41 41
12767 20091 6688 41 45 43
12479 20091 6647 36 38 36
12479 19985 6601 31 32 31
12336 20091 6625 31 31 31
12336 20044 6601 29 28 28
13197 19948 6660 47 51 50
13197 19818 6601 46 50 48
13242 19804 6601 46 50 48
13197 19804 6593 45 49 48
13054 19850 6601 43 46 44
13054 19948 6642 44 49 48
12910 19890 6601 39 44 42
12910 19948 6629 40 45 43
12910 19804 6553 41 44 41
13054 19804 6578 43 45 44
13197 19661 6523 44 47 46
13197 19517 6458 45 48 45
13196 19517 6458 44 47 44
13197 19517 6458 44 47 44
13054 19661 6503 43 46 43
12910 19586 6458 42 43 40
12910 19661 6490 44 45 42
13054 19517 6435 41 44 41
13054 19563 6458 41 44 41
12910 19517 6425 41 43 39
12767 19948 6615 37 39 38
12767 19921 6601 36 39 37
12623 19948 6603 31 32 32
12623 19944 6601 31 32 32
12604 19948 6601 31 31 31
12623 19804 6522 36 38 35
12767 19804 6536 38 42 39
12336 19948 6549 28 28 27
12479 19948 6582 31 31 31
12479 19804 6506 35 36 32
12336 19804 6484 32 32 29
12336 19741 6458 31 31 28
12767 19624 6458 38 41 37
12767 19661 6472 39 43 39
12658 19661 6458 37 39 36
12623 19671 6458 37 38 36
12623 19661 6453 37 38 36
12623 19517 6403 36 37 35
12767 19517 6415 38 38 36
12479 19698 6458 33 34 30
12479 19661 6440 33 34 30
12336 19661 6425 31 31 27
12336 19517 6368 33 33 29
12479 19517 6383 36 36 32
14202 19374 6653 45 48 45
14202 19235 6601 43 46 44
14202 19230 6600 43 46 44
14206 19230 6601 42 45 43
14058 19374 6602 46 50 46
14058 19371 6601 47 51 47
14054 19374 6601 47 51 47
13915 19374 6561 50 52 50
14058 19230 6546 47 51 49
13915 19230 6503 49 53 51
14202 19087 6540 42 45 43
13980 19087 6458 46 51 48
14058 19087 6491 45 50 47
13915 19087 6432 47 51 48
13915 19139 6458 48 52 50
14058 19015 6458 44 49 46
13771 19374 6515 51 54 52
13628 19374 6472 50 52 50
13628 19345 6458 49 52 49
13570 19374 6458 50 52 49
13771 19253 6458 50 54 52
13771 19230 6447 50 53 51
13798 19230 6458 50 54 52
13628 19230 6400 48 51 48
13484 19374 6436 50 51 47
13484 19421 6458 51 52 48
13341 19374 6414 47 48 44
13484 19230 6367 48 49 45
13341 19230 6333 45 46 43
13771 19087 6387 49 52 49
13628 19087 6347 48 51 47
13628 19008 6314 48 49 46
13511 19087 6314 47 48 43
13484 19087 6307 46 47 43
13484 19104 6314 47 48 43
13341 19184 6314 45 46 42
13341 19087 6279 45 46 41
14202 18943 6478 42 46 43
14202 18900 6458 42 46 43
14148 18943 6458 43 47 44
14325 18800 6458 38 43 41
14202 18800 6414 42 45 43
14058 18943 6426 44 48 46
13915 18943 6373 46 49 47
14058 18800 6364 43 47 45
13915 18800 6319 44 48 46
13900 18800 6314 45 49 47
13915 18786 6314 45 49 47
14202 18656 6356 41 45 43
14231 18513 6314 42 44 42
14202 18539 6314 43 46 44
14202 18513 6306 43 45 43
14060 18656 6314 44 49 46
14058 18656 6313 45 50 47
14058 18658 6314 44 49 46
13915 18656 6265 47 51 49
14058 18513 6257 46 49 46
13915 18513 6217 48 52 49
13771 18908 6314 48 51 48
13771 18943 6330 47 51 47
13718 18943 6314 48 50 47
13628 18943 6289 48 49 46
13628 18800 6232 50 52 49
13771 18800 6269 49 52 50
13484 18943 6244 46 47 46
13341 18943 6219 47 48 44
13341 18822 6171 48 50 46
13484 18800 6200 49 50 48
13484 18734 6171 50 51 49
13373 18800 6171 49 50 47
13341 18800 6162 48 50 47
13771 18656 6220 50 53 51
13628 18656 6178 50 52 50
13605 18656 6171 51 52 50
13628 18635 6171 50 53 50
13781 18513 6171 50 53 50
13771 18513 6167 50 53 50
13771 18523 6171 50 53 50
13197 19374 6389 42 44 42
13197 19238 6314 42 44 42
13197 19230 6310 42 44 42
13225 19230 6314 43 45 42
13054 19374 6369 40 42 39
12910 19374 6360 40 40 37
13054 19244 6314 39 41 38
13054 19230 6308 39 42 39
12910 19230 6290 38 40 38
12910 19277 6314 39 40 38
13197 19087 6248 42 44 41
12910 19087 6225 38 40 41
13054 19087 6234 40 42 40
13054 18948 6171 43 45 43
12910 18976 6171 40 44 43
12767 19374 6348 39 40 37
12623 19374 6348 39 41 38
12767 19296 6314 39 41 38
12767 19230 6282 38 40 38
12623 19303 6314 39 41 37
12623 19230 6277 39 41 37
12479 19332 6314 38 38 35
12479 19374 6333 38 38 34
12336 19374 6323 34 34 30
12336 19350 6314 34 34 30
12479 19230 6270 39 40 37
12336 19230 6269 37 36 31
12767 19087 6213 40 42 40
12623 19087 6207 41 42 39
12623 19008 6171 40 41 38
12767 18986 6171 40 43 41
12479 19087 6203 42 41 38
12336 19087 6201 40 40 36
12336 19027 6171 40 41 37
12479 19022 6171 40 41 37
13197 18920 6171 47 49 45
13197 18943 6180 47 48 45
13079 18943 6171 44 46 44
13054 18943 6169 43 46 44
12910 18943 6156 41 45 43
12767 18943 6153 40 43 41
13628 18513 6125 50 53 50
13484 18656 6134 51 51 49
13341 18656 6096 48 48 47
13484 18513 6074 50 50 47
13341 18481 6027 46 47 46
13341 18513 6041 46 46 45
13197 18800 6127 46 48 45
13054 18800 6114 43 46 44
12910 18800 6098 40 44 42
13197 18656 6077 43 46 44
13269 18513 6027 44 46 46
13197 18543 6027 43 46 45
13197 18513 6013 43 46 46
13054 18656 6056 40 44 43
13054 18590 6027 40 45 44
12910 18607 6027 41 44 43
12910 18656 6046 41 43 42
12910 18513 5991 41 46 45
13054 18513 5996 42 45 45
12623 18943 6143 40 41 37
12767 18800 6097 41 43 41
12623 18800 6083 41 42 40
12336 18943 6126 39 41 37
12479 18943 6135 39 41 37
12479 18800 6066 38 42 38
12336 18800 6054 38 40 37
12336 18732 6027 37 39 37
12767 18626 6027 40 43 41
12767 18656 6037 40 43 41
12662 18656 6027 40 43 41
12623 18665 6027 40 43 42
12623 18656 6023 39 43 42
12767 18513 5989 41 44 43
12623 18513 5971 40 43 40
12479 18656 6016 38 41 39
12479 18685 6027 38 42 39
12336 18656 5998 37 39 37
12336 18513 5950 37 40 37
12479 18513 5957 38 41 39
16354 18369 6662 25 25 24
16211 18374 6601 14 13 12
16214 18369 6601 14 13 12
16211 18369 6600 14 13 12
16300 18226 6601 28 29 27
16354 18226 6623 35 36 34
16211 18226 6565 19 18 18
16067 18369 6545 31 31 29
15924 18369 6488 48 50 48
16067 18226 6500 31 30 30
15924 18260 6458 49 48 45
15924 18226 6448 48 47 44
15951 18226 6458 46 44 42
16354 18127 6601 39 41 39
16354 18082 6590 40 42 41
16380 18082 6601 41 43 42
16211 18082 6521 29 29 29
16354 17939 6555 41 44 42
16211 17939 6483 38 39 36
16157 17939 6458 35 36 34
16067 18082 6460 30 31 29
16067 18076 6458 31 32 29
16062 18082 6458 31 32 30
15924 18082 6402 48 48 45
16067 17939 6413 34 34 32
15924 17939 6351 49 49 45
15783 18369 6458 48 45 43
15780 18371 6458 47 45 43
15780 18369 6457 47 45 43
15637 18369 6442 43 41 40
15637 18420 6458 43 41 40
15780 18226 6414 46 45 43
15637 18226 6400 42 42 41
15493 18369 6438 38 38 37
15493 18423 6458 38 39 39
15493 18226 6396 36 38 38
15780 18082 6365 46 47 45
15637 18082 6348 44 43 40
15794 17939 6314 47 45 44
15780 17939 6310 46 45 44
15780 17950 6314 47 45 44
15637 17989 6314 45 43 41
15637 17939 6298 43 41 40
15493 18082 6347 38 39 40
15493 17939 6298 36 38 37
15493 17989 6314 37 39 38
16354 17795 6516 37 40 38
16211 17856 6458 38 40 38
16211 17795 6439 38 41 38
16247 17795 6458 37 41 38
16067 17795 6367 40 40 37
15942 17795 6314 46 47 45
15924 17821 6314 47 48 46
15924 17795 6306 47 48 46
16354 17652 6479 32 36 34
16315 17652 6458 32 36 34
16354 17541 6458 32 34 33
16211 17652 6402 35 38 36
16354 17508 6451 32 34 33
16369 17508 6458 32 34 33
16211 17508 6365 32 35 34
16033 17652 6314 40 41 39
16067 17652 6331 38 39 37
16067 17595 6314 37 39 37
15924 17652 6259 47 46 44
16119 17508 6314 34 36 35
16067 17508 6285 37 38 37
15924 17508 6216 48 48 46
15637 17795 6247 41 40 39
15780 17795 6261 46 43 42
15493 17795 6242 35 38 37
15780 17652 6217 45 44 42
15637 17652 6193 44 42 40
15637 17590 6171 45 43 41
15780 17513 6171 46 45 43
15785 17508 6171 47 46 43
15780 17508 6169 46 46 43
15637 17508 6146 43 42 40
15493 17594 6171 35 39 38
15493 17652 6192 33 38 38
15493 17508 6145 36 38 37
15350 18369 6439 34 37 34
15350 18427 6458 35 37 35
15206 18369 6438 33 36 34
15063 18369 6438 31 34 34
14919 18369 6432 32 33 33
15206 18226 6395 32 36 36
15350 18226 6398 35 37 37
15063 18226 6386 31 34 34
14919 18226 6385 33 34 32
15350 18082 6347 32 35 34
15206 18082 6346 32 34 34
15350 17939 6299 32 36 36
15350 17987 6314 32 35 35
15206 17982 6314 30 34 34
15206 17939 6302 30 34 34
15063 18082 6348 32 34 34
14919 18082 6343 33 34 33
15063 17977 6314 31 32 33
15063 17939 6302 30 32 32
14919 17939 6297 31 33 32
14919 17996 6314 31 33 32
14776 18369 6422 35 36 34
14632 18369 6397 36 38 35
14632 18226 6344 36 35 33
14776 18226 6376 35 35 34
14489 18369 6357 38 38 35
14345 18405 6314 41 42 40
14345 18369 6303 41 42 40
14377 18369 6314 40 41 39
14489 18245 6314 39 38 35
14516 18226 6314 39 38 34
14489 18226 6308 39 38 34
14345 18226 6263 42 42 38
14776 18082 6324 34 34 32
14632 18128 6314 36 35 33
14717 18082 6314 34 34 32
14632 18082 6301 35 35 32
14776 18047 6314 34 34 31
14776 17939 6286 33 33 31
14632 17939 6255 35 35 32
14345 18082 6206 41 41 38
14489 18082 6257 37 38 35
14489 17939 6208 37 36 33
14345 17985 6171 41 41 38
14345 17939 6155 41 41 38
14387 17939 6171 39 40 36
15350 17795 6249 31 35 34
15206 17795 6257 30 33 33
14919 17795 6262 30 33 32
15063 17795 6264 31 33 33
15350 17652 6199 32 35 36
15350 17578 6171 32 36 36
15206 17545 6171 31 33 32
15206 17652 6203 31 34 32
15350 17508 6148 32 36 35
15206 17508 6160 31 33 32
15063 17652 6214 31 33 31
14919 17537 6171 30 32 31
14919 17652 6209 30 32 31
15063 17508 6168 30 32 31
15063 17516 6171 30 32 31
14919 17508 6161 30 32 30
14632 17795 6211 33 34 31
14776 17795 6246 31 33 31
14510 17795 6171 35 36 35
14489 17795 6164 35 36 35
14489 17817 6171 36 36 35
14776 17574 6171 31 32 30
14776 17652 6195 31 32 31
14632 17652 6172 32 33 32
14632 17648 6171 32 33 32
14629 17652 6171 32 33 32
14776 17508 6151 31 32 30
16354 17365 6414 29 33 32
16211 17365 6325 31 32 32
16192 17365 6314 31 32 32
16211 17321 6314 30 31 31
16256 17221 6314 27 30 29
16354 17221 6373 25 28 29
16211 17221 6285 29 30 29
16067 17365 6239 34 35 34
15924 17378 6171 49 50 46
15924 17365 6166 48 49 45
15934 17365 6171 48 49 45
16067 17221 6191 33 31 30
16027 17221 6171 37 36 35
16067 17163 6171 31 30 29
16354 17078 6327 21 24 24
16332 17078 6314 21 24 24
16354 17043 6314 19 22 23
16211 17078 6235 23 25 25
16354 16934 6270 14 18 18
16207 16934 6171 18 19 19
16211 16934 6173 18 19 19
16211 16927 6171 17 18 18
16118 17078 6171 26 26 26
16295 16791 6171 12 14 15
16354 16791 6206 12 13 15
16354 16726 6171 11 12 13
14202 18369 6261 45 46 45
14103 18226 6171 46 51 46
14202 18226 6202 46 48 44
14058 18369 6209 48 52 48
13922 18369 6171 49 53 50
13915 18375 6171 50 53 50
13915 18369 6168 50 54 50
14058 18260 6171 47 53 48
14058 18226 6157 47 53 48
14249 18082 6171 44 46 42
14202 18082 6153 45 48 44
14202 18133 6171 45 48 44
14345 17795 6104 41 40 39
14632 17508 6121 32 33 32
14489 17652 6114 34 36 34
14345 17618 6027 38 38 39
14345 17652 6043 39 39 38
14489 17441 6027 35 36 33
14489 17508 6054 35 36 33
14443 17508 6027 36 36 34
14345 17508 5978 37 38 37
15924 17221 6122 46 46 44
16067 17078 6141 27 27 26
15924 17078 6078 43 45 43
16067 16934 6089 25 24 24
15924 16928 6027 44 46 43
15924 16934 6029 43 45 42
15915 16934 6027 44 45 42
15637 17365 6106 44 42 40
15780 17365 6124 48 46 42
15780 17221 6079 45 46 42
15637 17221 6065 42 40 36
15493 17365 6106 34 37 36
15493 17221 6068 35 35 35
15780 17049 6027 44 45 43
15780 17078 6035 44 44 43
15637 17088 6027 41 40 37
15637 17078 6024 40 40 37
15678 17078 6027 42 41 39
15637 16934 5988 39 37 35
15780 16934 6000 43 45 42
15493 17078 6025 35 36 33
15493 17088 6027 35 36 33
15466 17078 6027 34 36 32
15493 16934 5994 33 33 31
16211 16791 6121 12 15 15
16354 16647 6133 9 10 12
16211 16647 6064 12 14 14
16139 16647 6027 18 19 19
16045 16791 6027 29 27 26
16067 16791 6037 26 23 22
15924 16791 5986 45 47 44
16067 16759 6027 26 24 23
15924 16647 5950 44 45 43
16067 16647 5996 24 24 24
16211 16558 6027 14 14 14
16354 16504 6071 18 20 19
16256 16504 6027 16 16 16
16354 16392 6027 33 34 32
16211 16504 6010 15 15 15
16067 16504 5958 24 24 23
15924 16504 5914 42 45 42
15924 16391 5884 43 47 43
15637 16791 5952 37 36 34
15780 16791 5958 42 42 39
15637 16647 5918 36 35 33
15780 16647 5921 41 42 40
15493 16791 5958 31 31 29
15493 16647 5919 29 31 29
15780 16504 5891 42 42 40
15780 16477 5884 42 42 40
15669 16504 5884 38 36 34
15637 16504 5882 36 35 32
15637 16511 5884 36 35 32
15493 16515 5884 29 30 29
15493 16504 5881 30 30 29
15450 16504 5884 30 30 28
15206 17365 6117 31 32 32
15350 17365 6112 32 35 33
15350 17221 6073 30 34 32
15206 17221 6081 30 31 31
15063 17365 6123 30 31 31
14919 17365 6126 30 32 30
14919 17221 6086 30 31 30
15063 17221 6085 30 32 30
15350 17078 6040 30 33 30
15350 17038 6027 30 32 29
15206 17078 6038 29 31 29
15206 17026 6027 29 30 28
15206 16934 6011 29 30 28
15350 16934 5999 30 31 29
14919 17078 6047 30 31 30
15063 17078 6048 30 31 29
14919 17006 6027 30 32 31
15063 16997 6027 30 31 29
15063 16934 6014 30 31 28
14919 16934 6010 30 32 31
14776 17365 6109 31 32 31
14632 17365 6062 31 33 31
14776 17221 6067 30 32 31
14670 17221 6027 30 32 31
14632 17265 6027 31 33 31
14632 17221 6013 31 33 31
14554 17365 6027 33 34 33
14345 17365 5914 39 38 37
14489 17365 5998 34 35 34
14489 17221 5938 34 34 33
14345 17293 5884 39 38 37
14345 17221 5854 39 38 37
14397 17221 5884 38 37 35
14776 17106 6027 30 32 31
14776 17078 6018 30 31 31
14823 17078 6027 30 32 31
14632 17078 5967 30 33 31
14632 16934 5923 30 32 31
14776 16934 5978 30 32 31
14489 17078 5885 33 35 33
14489 17073 5884 33 35 33
14486 17078 5884 34 35 33
14345 17078 5794 39 39 36
14489 16934 5840 33 35 33
14561 16934 5884 31 33 32
14345 16940 5740 38 38 36
14348 16934 5740 37 37 36
14345 16934 5738 38 37 36
15350 16791 5964 29 29 27
15206 16791 5970 30 30 27
15350 16647 5926 28 30 27
15206 16647 5930 29 30 28
15063 16791 5975 30 31 29
14919 16791 5975 29 33 30
14919 16647 5938 31 33 31
15063 16647 5943 29 31 28
15206 16504 5900 29 31 28
15350 16504 5891 29 31 27
14919 16504 5900 30 32 30
15063 16504 5907 29 30 28
15350 16474 5884 30 30 27
15206 16440 5884 29 30 27
15063 16416 5884 29 30 28
14850 16504 5884 30 32 29
14919 16444 5884 30 32 29
14776 16647 5908 29 33 31
14776 16791 5944 28 32 31
14632 16812 5884 28 33 31
14632 16791 5877 28 33 31
14647 16791 5884 28 33 32
14725 16647 5884 28 33 31
14632 16647 5836 27 33 30
14489 16791 5786 34 35 33
14345 16791 5691 38 38 36
14423 16791 5740 36 37 35
14489 16647 5740 32 35 34
14489 16648 5740 32 36 34
14489 16647 5740 31 35 34
14345 16647 5643 37 39 36
14776 16563 5884 30 33 29
14776 16504 5867 30 32 28
14632 16504 5800 28 33 31
14542 16504 5740 30 34 32
14489 16504 5704 32 35 33
14345 16504 5597 42 40 37
14345 16504 5597 41 39 37
14345 16503 5597 41 40 37
13915 18226 6106 50 54 50
14202 17939 6097 45 48 46
14058 18082 6097 47 51 49
13915 18082 6034 48 52 49
13896 18082 6027 49 53 49
13915 18066 6027 48 53 49
14058 17927 6027 49 53 51
14058 17939 6032 48 52 50
14046 17939 6027 48 53 50
13915 17939 5972 48 53 49
13771 18369 6113 50 53 49
13628 18369 6057 50 50 47
13697 18226 6027 49 52 49
13771 18226 6058 50 52 48
13628 18295 6027 49 51 48
13628 18226 5995 49 52 49
13484 18399 6027 49 49 47
13525 18369 6027 49 49 48
13484 18369 6014 49 49 48
13341 18369 5975 46 48 47
13341 18226 5916 45 46 45
13484 18226 5950 48 48 47
13771 18161 6027 50 53 49
13771 18082 5985 49 53 50
13628 18082 5929 50 52 48
13771 17939 5918 50 53 49
13673 17939 5884 50 53 49
13628 17939 5870 50 53 49
